# .PCD v0.7 - Point Cloud Data file format
VERSION 0.7
FIELDS x y z intensity ring
SIZE 4 4 4 4 2
TYPE F F F F U
COUNT 1 1 1 1 1
WIDTH 1338
HEIGHT 1
VIEWPOINT 0 0 0 1 0 0 0
POINTS 1338
DATA ascii
30.444551 31.83613 11.803185 67 15
2.9189277 3.0438313 -1.130004 10 0
15.251123 15.903734 0.38461611 9 8
3.2849441 3.4243104 -1.0955117 12 1
16.775869 17.481491 1.269775 15 9
3.7932684 3.9514427 -1.0647143 22 2
22.030682 22.941294 2.7827084 2 10
4.4817963 4.6654162 -1.0246458 27 3
31.108809 32.383343 5.5136132 45 11
5.6476688 5.8770075 -1.0007912 49 4
30.989704 32.236828 7.0824146 56 12
7.4174881 7.7132959 -0.93622696 41 5
30.863775 32.083439 8.6535702 57 13
10.433861 10.842384 -0.7885983 33 6
30.708902 31.900122 10.222676 70 14
14.618724 15.185794 -0.36793163 25 7
30.530012 31.703247 11.793349 60 15
2.9284749 3.0346467 -1.130004 10 0
17.031519 17.642817 0.42803773 17 8
3.3071101 3.4246132 -1.0991108 11 1
16.814308 17.405664 1.2683097 9 9
3.8124828 3.9465671 -1.0666224 20 2
22.083258 22.851915 2.7802682 2 10
4.499176 4.6541548 -1.0252717 28 3
31.58997 32.66674 5.5796661 27 11
5.6919713 5.8839254 -1.0051785 49 4
31.568979 32.622208 7.1900415 32 12
7.4638495 7.7128639 -0.93901592 34 5
31.378193 32.4137 8.7692003 36 13
10.485931 10.828206 -0.78995901 36 6
31.194038 32.201004 10.350448 16 14
14.733019 15.203286 -0.36953726 27 7
30.957697 31.934721 11.917583 7 15
2.9417436 3.0271764 -1.1310393 8 0
17.063732 17.553143 0.42730471 41 8
3.3244777 3.418637 -1.1009104 12 1
16.919533 17.392673 1.2716591 9 9
3.8399262 3.9473064 -1.0704385 15 2
20.712234 21.283979 2.5982871 2 10
4.5126376 4.6355915 -1.0246458 29 3
32.440601 33.312859 5.7093358 28 11
5.7346401 5.8867707 -1.0090783 52 4
32.319588 33.165424 7.3345871 41 12
7.4893351 7.6853385 -0.93884164 37 5
32.090004 32.918331 8.9359674 31 13
10.539007 10.807263 -0.7911104 30 6
31.967585 32.769867 10.5691 34 14
14.819508 15.186125 -0.37037495 25 7
31.63847 32.409817 12.136025 7 15
2.9604003 3.0251729 -1.1341451 11 0
17.206022 17.576363 0.42932919 46 8
3.3391187 3.4097955 -1.1018102 11 1
16.991329 17.344917 1.2724966 19 9
3.8468134 3.9268653 -1.0685304 18 2
20.738976 21.163181 2.5923603 2 10
4.5329409 4.6240416 -1.0255845 34 3
33.196041 33.851376 5.821455 29 11
5.7690511 5.8808918 -1.0115156 45 4
33.074383 33.703773 7.4791327 36 12
7.5551925 7.6989641 -0.94372231 29 5
32.856628 33.470188 9.1168547 26 13
10.566864 10.760441 -0.79037774 37 6
32.689499 33.276695 10.769306 36 14
14.924291 15.187072 -0.37166646 30 7
32.377068 32.935684 12.375175 7 15
2.983145 3.027205 -1.1388038 12 0
17.239199 17.487711 0.4286311 24 8
3.3674216 3.4147692 -1.1072091 7 1
16.967609 17.200191 1.2662162 9 9
3.8577392 3.910619 -1.0677671 22 2
22.489277 22.789593 2.8011856 2 10
4.5448928 4.603972 -1.0246458 35 3
33.973743 34.403397 5.9367437 30 11
5.7811756 5.8522434 -1.0100532 49 4
33.863865 34.268162 7.6305614 38 12
7.5960274 7.6867151 -0.94546551 46 5
33.641277 34.031063 9.3015575 35 13
10.609981 10.729168 -0.7907964 38 6
33.461933 33.825989 10.98481 19 14
15.043317 15.201691 -0.37330699 28 7
33.17411 33.511662 12.635028 8 15
2.980087 3.0030603 -1.1336274 12 0
17.032459 17.157787 0.42199919 9 8
3.3834379 3.4071445 -1.1085589 6 1
19.645658 19.776382 1.460906 13 9
3.8644493 3.8901639 -1.0658592 27 2
22.534992 22.677029 2.7970021 2 10
4.5595403 4.5866814 -1.024333 34 3
34.808914 35.003864 6.0612946 23 11
5.7651696 5.795435 -1.003716 52 4
34.6688 34.838673 7.7844925 24 12
7.608686 7.643292 -0.94354802 41 5
34.455181 34.611889 9.4931297 29 13
10.684013 10.728861 -0.79351783 37 6
34.270187 34.402065 11.210661 30 14
15.149932 15.202909 -0.37463337 28 7
33.952377 34.059212 12.886083 8 15
2.9965363 2.9975832 -1.135698 12 0
17.654926 17.661095 0.43589133 15 8
3.3994448 3.399446 -1.1099085 5 1
19.741405 19.73452 1.4628948 4 9
3.8842356 3.8815258 -1.0673856 17 2
22.634865 22.611183 2.7990937 2 10
4.6084704 4.6020417 -1.0315289 30 3
35.650059 35.60033 6.1860886 15 11
5.7881737 5.7780824 -1.0042036 53 4
35.032104 34.958824 7.8386192 8 12
7.6578903 7.6391978 -0.94633704 41 5
34.893192 34.795906 9.5786114 45 13
10.70346 10.669891 -0.79205245 37 6
34.7108 34.589832 11.313239 20 14
15.236907 15.183805 -0.37547109 27 7
34.515862 34.383602 13.054316 8 15
3.0001299 2.9802971 -1.1331098 15 0
17.821695 17.697723 0.43840444 21 8
3.4146471 3.3897102 -1.1108083 5 1
22.514645 22.350222 1.6626089 5 9
3.9075167 3.8776228 -1.0700569 21 2
22.744766 22.562906 2.8029284 2 10
4.6188951 4.5803647 -1.0302775 30 3
36.668476 36.349865 6.339644 16 11
5.7867503 5.7344728 -1.0003036 51 4
35.141289 34.823822 7.8358035 8 12
7.6703501 7.598403 -0.94459391 47 5
34.986557 34.646259 9.5709801 37 13
10.749153 10.640897 -0.7926805 36 6
34.831322 34.468468 11.313239 20 14
15.358038 15.198046 -0.37714651 25 7
34.627445 34.254749 13.051209 8 15
3.0228915 2.9820173 -1.1377686 13 0
18.096678 17.851982 0.44371 3 8
3.4203198 3.3728943 -1.1090087 3 1
22.620975 22.299532 1.6647022 7 9
3.9238243 3.8667164 -1.0708202 21 2
23.402496 23.053843 2.8740478 2 10
4.6340604 4.5650215 -1.0302775 28 3
37.613403 37.040104 6.4817433 12 11
5.7887602 5.6985388 -0.99737877 49 4
35.248562 34.68708 7.832675 16 12
7.6741033 7.5492253 -0.94180495 46 5
35.07605 34.505272 9.5641098 37 13
10.708909 10.53097 -0.78713286 41 6
34.92041 34.328186 11.30514 20 14
15.462339 15.194804 -0.37840307 29 7
34.721989 34.109306 13.041892 8 15
3.0382824 2.977386 -1.1398392 11 0
18.904547 18.519175 0.46193027 3 8
3.433466 3.3622971 -1.1094586 3 1
19.917002 19.497372 1.4606967 10 9
3.9268036 3.8440702 -1.0681487 21 2
23.41046 22.909227 2.8656807 17 10
4.6852698 4.5833502 -1.0380992 24 3
38.576988 37.724682 6.625062 6 11
5.7986817 5.6685829 -0.99567258 55 4
35.341179 34.536205 7.8264174 8 12
7.6976728 7.5223413 -0.94163066 37 5
35.17802 34.364799 9.5591497 30 13
10.76704 10.514452 -0.78870296 40 6
35.0233 34.189739 11.299742 20 14
15.563941 15.188227 -0.37958986 27 7
34.838085 33.985191 13.040856 8 15
3.0403504 2.9586773 -1.1367333 13 0
19.930857 19.3887 0.48535141 35 8
3.4773135 3.3815398 -1.1198063 3 1
19.959167 19.402666 1.4588126 21 9
3.9472377 3.8371811 -1.0700569 18 2
23.5303 22.866243 2.8705614 2 10
4.6899042 4.5559578 -1.0355963 23 3
5.8640118 5.692555 -1.0034722 53 4
35.441662 34.393379 7.8220372 24 12
7.7138734 7.4857144 -0.94041049 42 5
35.290726 34.234947 9.5572414 37 13
10.787902 10.461512 -0.78755152 50 6
35.125637 34.051006 11.294343 30 14
15.700156 15.214515 -0.38161433 23 7
34.932907 33.84053 13.032057 8 15
3.0576053 2.9547596 -1.1393216 13 0
19.999857 19.320395 0.48538634 45 8
3.4792845 3.3599043 -1.116657 3 1
20.00329 19.316944 1.4573472 10 9
3.9648445 3.8274708 -1.0712018 19 2
23.601366 22.775669 2.8695154 2 10
4.70578 4.5395575 -1.0355963 21 3
40.805607 39.350525 6.9604464 8 11
5.9210033 5.7078724 -1.0098095 53 4
35.529919 34.250992 7.8164058 16 12
7.7600431 7.4780955 -0.94285083 41 5
35.395882 34.097919 9.5534248 30 13
10.876143 10.473668 -0.79131973 33 6
35.227444 33.911961 11.288943 40 14
15.808154 15.217836 -0.38301051 23 7
35.024063 33.704403 13.024293 8 15
3.0609319 2.9373796 -1.1367333 18 0
19.99168 19.184731 0.48364109 31 8
3.4988444 3.3564432 -1.1193565 3 1
23.399103 22.438953 1.6990346 5 9
3.9852679 3.8203995 -1.0731099 13 2
23.821707 22.828239 2.8865983 3 10
4.7136755 4.5170951 -1.0340319 26 3
6.0087185 5.754107 -1.0215088 47 4
35.642132 34.119919 7.8148408 24 12
7.8148832 7.4785175 -0.94633704 33 5
35.490299 33.962738 9.5484648 30 13
10.931024 10.456869 -0.79278517 47 6
35.329838 33.785534 11.285794 40 14
15.882849 15.183302 -0.3835341 28 7
35.121941 33.563259 13.017046 8 15
3.0734518 2.9298797 -1.1377686 18 0
20.18737 19.237602 0.48674762 3 8
3.5048945 3.3388338 -1.1175569 3 1
23.319641 22.207001 1.6876254 13 9
3.9893839 3.7990403 -1.0708202 14 2
4.7422924 4.5128703 -1.0368477 30 3
6.0503469 5.7536154 -1.0251651 52 4
7.8540821 7.4662862 -0.94808012 32 5
10.92402 10.377379 -0.78964496 30 6
15.985065 15.174573 -0.38472083 27 7
35.461704 33.651886 13.09935 9 15
3.0934815 2.9284291 -1.1413921 14 0
20.427227 19.330595 0.49090132 1 8
3.5236068 3.3332739 -1.1198063 3 1
23.414433 22.141926 1.6888814 13 9
4.0168862 3.7985802 -1.0746363 11 2
31.563307 29.837528 3.7999904 5 10
4.7651963 4.5030718 -1.0384121 30 3
6.0415249 5.7052064 -1.0202903 51 4
7.8931384 7.4511328 -0.94964898 37 5
10.967434 10.346045 -0.79016834 43 6
16.093235 15.170802 -0.38604724 25 7
36.272064 34.181099 13.354546 9 15
3.0938313 2.9083514 -1.1377686 17 0
21.37184 20.083542 0.51191396 16 8
3.5508423 3.335633 -1.1247553 3 1
31.838478 29.898327 2.2889657 3 9
4.018671 3.7737842 -1.0715834 12 2
31.629507 29.691706 3.7954581 5 10
4.775125 4.4810023 -1.0371606 26 3
6.0758843 5.69766 -1.0227276 50 4
38.166443 35.778027 8.2857094 19 12
7.9060183 7.4112687 -0.94808012 34 5
38.008606 35.617641 10.125089 61 13
11.022433 10.325446 -0.79152906 30 6
37.822472 35.418396 11.962897 54 14
16.15777 15.12547 -0.38632649 25 7
37.096451 34.71426 13.613365 10 15
3.1067894 2.9001698 -1.1388038 18 0
21.909655 20.4454 0.52308357 11 8
3.565315 3.3258758 -1.1256551 3 1
4.0461788 3.7731216 -1.0753995 12 2
31.805822 29.649052 3.8041739 5 10
4.7705021 4.4454565 -1.0327804 31 3
6.1015458 5.6818295 -1.0237026 50 4
38.980755 36.286625 8.434947 10 12
7.8778782 7.3334041 -0.94163066 37 5
38.816837 36.121357 10.306739 9 13
10.998455 10.231131 -0.78723752 37 6
38.633694 35.925816 12.179749 11 14
16.25148 15.107093 -0.3873038 28 7
3.1197257 2.8919365 -1.1398392 15 0
21.991161 20.378304 0.52332789 9 8
3.5854814 3.3213553 -1.1283545 3 1
4.0593224 3.7589777 -1.0753995 11 2
32.017326 29.637995 3.8170729 5 10
4.8004909 4.4421921 -1.0359092 30 3
6.0994816 5.6402788 -1.0200466 54 4
7.8653908 7.2706943 -0.93709856 37 5
11.019427 10.179125 -0.78619081 37 6
16.330561 15.074691 -0.38793209 29 7
3.1369088 2.8875697 -1.1424273 14 0
22.119555 20.354219 0.52468914 2 8
3.595618 3.3075006 -1.1279047 7 1
23.131754 21.27075 1.646908 1 9
4.0796461 3.7514288 -1.0773077 12 2
4.8188758 4.4280829 -1.0365349 26 3
6.1030507 5.6041822 -1.0173653 53 4
42.418644 38.937706 9.1198177 26 12
7.9039302 7.255322 -0.93866736 41 5
42.254765 38.773689 11.147444 33 13
11.022515 10.110894 -0.78388804 40 6
42.049175 38.558006 13.171334 36 14
16.428776 15.059486 -0.38901415 30 7
41.822029 38.322826 15.199408 13 15
3.14697 2.8766015 -1.1424273 15 0
21.871603 19.985523 0.51714975 1 8
3.5798049 3.2699571 -1.1193565 10 1
23.070177 21.065968 1.6372783 1 9
4.0956163 3.7398117 -1.0780709 16 2
32.35001 29.529268 3.8320637 5 10
4.8313856 4.4085703 -1.0359092 19 3
43.348373 39.540909 7.204185 9 11
6.165112 5.621634 -1.0244337 53 4
43.206882 39.384224 9.2596693 13 12
7.9527698 7.2491612 -0.94145626 33 5
43.038536 39.217022 11.318027 11 13
11.127136 10.135571 -0.78880757 32 6
42.833359 39.002705 13.37424 12 14
16.5404 15.055886 -0.39041033 28 7
41.984119 38.202618 15.209761 13 15
3.155561 2.8643012 -1.1419097 15 0
21.861259 19.836498 0.51526487 7 8
3.6056306 3.2705345 -1.1238555 6 1
23.187952 21.02556 1.6404184 1 9
4.0999188 3.7175808 -1.0757812 15 2
4.8555293 4.3996358 -1.0377864 17 3
6.2303133 5.6413851 -1.0319897 50 4
7.9617786 7.2066469 -0.9395389 38 5
11.230581 10.158301 -0.79362249 41 6
16.589884 14.99538 -0.39034054 30 7
43.407253 39.221489 15.675634 15 15
3.1569307 2.8455074 -1.1388038 17 0
22.393867 20.177706 0.52615511 2 8
3.6257136 3.265753 -1.126555 8 1
23.231525 20.917757 1.6383249 1 9
4.1114125 3.701932 -1.0753995 20 2
33.055889 29.753239 3.8909807 5 10
4.8737936 4.385304 -1.0384121 19 3
6.2263484 5.5983686 -1.0280899 49 4
7.9691029 7.1628299 -0.93744713 40 5
11.313523 10.161742 -0.79697204 33 6
16.710585 14.998817 -0.39194614 32 7
3.1769199 2.8434899 -1.1424273 15 0
22.455231 20.091408 0.52594572 2 8
3.6370907 3.2530777 -1.126555 10 1
23.377354 20.901773 1.643454 11 9
4.140408 3.7019534 -1.0795974 13 2
32.621799 29.157022 3.8278801 5 10
4.8640285 4.3458905 -1.0330933 23 3
6.2532568 5.583209 -1.0293086 51 4
8.0118933 7.1508908 -0.9395389 40 5
11.371282 10.142133 -0.79854208 36 6
16.82255 14.99362 -0.39334235 27 7
3.1868269 2.832382 -1.1424273 14 0
22.546158 20.03149 0.52643442 2 8
3.6484232 3.2403631 -1.126555 11 1
23.445696 20.816059 1.6431398 22 9
4.1621141 3.6952972 -1.081887 13 2
32.595234 28.929228 3.8128893 5 10
4.9072433 4.353796 -1.0390378 26 3
6.2697387 5.5587115 -1.0288211 49 4
8.0532055 7.1374192 -0.94145626 42 5
11.387181 10.08516 -0.79718137 47 6
16.964634 15.014321 -0.39543661 35 7
3.2053847 2.8289115 -1.1455331 14 0
22.594948 19.934151 0.52594572 2 8
3.6597128 3.227607 -1.126555 18 1
23.524202 20.73938 1.6435585 24 9
4.1823506 3.6872392 -1.0837952 7 2
4.9150009 4.3301091 -1.0374736 22 3
6.3472109 5.5879507 -1.0383269 49 4
8.09303 7.122426 -0.94319946 43 5
11.365322 9.9952316 -0.79320383 37 6
17.001925 14.941806 -0.39508757 31 7
3.2147477 2.8182671 -1.1455331 15 0
22.757174 19.943468 0.52817965 2 8
3.6821229 3.2257249 -1.1301541 17 1
23.593754 20.669315 1.6438726 16 9
4.1930776 3.6720569 -1.0834136 8 2
4.9456863 4.328095 -1.040915 26 3
6.4209948 5.6152244 -1.0473453 48 4
8.1211061 7.0994806 -0.94372231 38 5
11.294617 9.8668232 -0.78598148 43 6
17.039742 14.88043 -0.39487815 31 7
3.2158234 2.7994168 -1.1424273 14 0
22.898603 19.933537 0.52992487 2 8
3.7016194 3.2211733 -1.1328535 22 1
23.622046 20.548834 1.6408371 1 9
4.2162414 3.666415 -1.0860848 10 2
4.9913177 4.3388867 -1.0474852 23 3
6.4230967 5.5795789 -1.0446641 50 4
8.1518517 7.0763192 -0.94441962 37 5
11.349904 9.8489475 -0.78755152 29 6
17.218491 14.930902 -0.39781016 27 7
3.2338567 2.7963197 -1.1455331 14 0
23.194977 20.049631 0.5351606 2 8
3.7098908 3.2056849 -1.1319537 18 1
4.2491755 3.6703808 -1.0914276 7 2
5.0348439 4.345963 -1.0534298 26 3
6.4004464 5.5208178 -1.0378394 59 4
8.2021599 7.0699325 -0.94738293 41 5
11.391782 9.8157835 -0.78807491 37 6
17.294739 14.891595 -0.39836863 27 7
3.247015 2.7869656 -1.1465684 14 0
23.361919 20.051914 0.53739452 2 8
3.7092276 3.1825631 -1.1283545 22 1
35.147125 30.146017 2.4267139 3 9
4.270051 3.6611726 -1.0933356 11 2
5.05374 4.3300495 -1.0540556 28 3
6.4106297 5.4906993 -1.0363771 51 4
8.2358723 7.0490294 -0.94842881 45 5
11.415537 9.7635832 -0.78723752 36 6
17.32534 14.812938 -0.39787996 27 7
3.2655461 2.7831321 -1.1496743 13 0
23.535736 20.051727 0.53969824 2 8
3.7253172 3.1727378 -1.1297042 16 1
4.2798162 3.6436987 -1.0925723 8 2
5.0898867 4.3303032 -1.0584357 26 3
6.4367642 5.4723043 -1.0373518 59 4
8.2649822 7.0241113 -0.94895172 38 5
11.444984 9.7197933 -0.78692347 47 6
17.436392 14.802847 -0.39924127 25 7
3.2678673 2.7654769 -1.147086 12 0
23.602087 19.973585 0.53969824 2 8
3.7417686 3.1654017 -1.1315038 16 1
4.2925081 3.6287382 -1.0925723 10 2
5.1087437 4.3172274 -1.0593743 23 3
6.4457746 5.4432459 -1.0358895 53 4
8.2848835 6.9913607 -0.94842881 42 5
11.443566 9.6534576 -0.7846207 28 6
17.509365 14.759933 -0.39972994 28 7
3.2740629 2.7521379 -1.1460507 11 0
23.778835 19.981123 0.54214156 2 8
3.760257 3.1585877 -1.1337533 23 1
4.3180504 3.6258447 -1.096007 7 2
5.1025987 4.2815905 -1.0549942 24 3
6.505805 5.4551516 -1.0424705 38 4
8.3153448 6.9675188 -0.94912601 45 5
11.634896 9.7455521 -0.79540193 57 6
17.556185 14.694868 -0.39962521 26 7
3.2856123 2.7413566 -1.1465684 10 0
23.885294 19.928738 0.5429793 2 8
3.7742517 3.1479399 -1.1346531 17 1
4.3388519 3.6162777 -1.0979151 10 2
5.1197743 4.2641249 -1.055307 26 3
6.5431151 5.447649 -1.0453953 51 4
8.3534021 6.9499173 -0.95069486 40 5
11.619853 9.6607075 -0.79194778 31 6
17.670424 14.685904 -0.40105632 25 7
3.2981358 2.7323363 -1.1476036 10 0
23.992054 19.869125 0.54374719 2 8
3.7782595 3.1278708 -1.1324036 15 1
4.3574977 3.6061177 -1.0994414 7 2
39.063744 32.316345 4.4355302 8 10
5.1300616 4.2424493 -1.0543684 29 3
6.51407 5.3831663 -1.0375956 55 4
8.4114017 6.9486332 -0.9545297 38 5
11.692014 9.6518726 -0.7945646 38 6
17.787897 14.678865 -0.40255722 27 7
3.3091452 2.7220352 -1.1481214 12 0
24.104139 19.827572 0.54479432 2 8
3.7901175 3.1165612 -1.1328535 15 1
4.3791609 3.5983624 -1.1017312 8 2
5.1792116 4.254251 -1.0615644 29 3
6.5196118 5.3514581 -1.0356457 53 4
8.4386854 6.9217587 -0.95487827 37 5
11.723958 9.6130447 -0.7945646 43 6
17.894709 14.662314 -0.40381378 22 7
3.3196502 2.7122679 -1.148639 11 0
24.170099 19.740788 0.54472452 2 8
3.8055007 3.1070101 -1.1342032 12 1
4.3941112 3.5863044 -1.1024945 6 2
5.2078066 4.2473841 -1.0643803 25 3
6.5782595 5.3612757 -1.0419829 54 4
8.4396248 6.8733854 -0.95226365 47 5
11.800808 9.6073713 -0.79749537 39 6
18.000076 14.643925 -0.40503544 25 7
3.3265672 2.6976497 -1.1476036 10 0
24.434565 19.814991 0.54912251 2 8
3.8223791 3.0986152 -1.1360028 12 1
4.4240055 3.5837698 -1.1066922 5 2
42.608261 34.503471 4.7967033 10 10
5.2402267 4.2419405 -1.0678217 26 3
6.6154499 5.3532667 -1.0449078 53 4
8.4604654 6.8413801 -0.95191503 46 5
11.800215 9.5351791 -0.79508793 41 6
18.063532 14.591051 -0.40531468 28 7
3.3419831 2.6908667 -1.1496743 10 0
24.704865 19.884544 0.55355543 17 8
3.8337097 3.0845857 -1.1360028 12 1
4.4395494 3.570765 -1.1074555 5 2
5.2719402 4.2372341 -1.0712634 16 3
6.6340976 5.3301401 -1.0449078 54 4
8.5122614 6.8342552 -0.95505255 32 5
11.872366 9.5251846 -0.7977047 41 6
18.15023 14.556687 -0.4061175 27 7
3.3523972 2.6809752 -1.1501919 13 0
24.872196 19.883665 0.55582422 19 8
3.8317385 3.0621238 -1.1324036 13 1
4.4682398 3.5695012 -1.1116532 6 2
81.661263 65.212692 9.1429863 22 10
5.2705235 4.2074051 -1.0681347 23 3
81.436081 64.986267 12.792625 19 11
6.631567 5.2920132 -1.0417392 47 4
8.5442228 6.8134451 -0.95609844 29 5
11.90389 9.4857597 -0.7977047 39 6
18.195271 14.493931 -0.40604767 27 7
3.3703442 2.6770551 -1.1532978 12 0
24.972446 19.828438 0.55659217 2 8
3.8510303 3.0566683 -1.135103 12 1
4.4800515 3.5546653 -1.1116532 8 2
5.3154058 4.2144489 -1.0743921 15 3
6.597095 5.226923 -1.0334522 59 4
8.585515 6.7999167 -0.9581902 35 5
11.947807 9.456151 -0.79854208 43 6
18.303789 14.476222 -0.40733919 25 7
3.3675334 2.6557028 -1.1491566 12 0
30.902227 24.361355 0.68685693 2 8
3.8693278 3.0492411 -1.1373526 13 1
4.4986 3.5438657 -1.1131797 7 2
5.3502593 4.2117567 -1.0784594 10 3
6.6449456 5.2271805 -1.0380832 55 4
8.5669136 6.7366509 -0.95348382 32 5
11.99488 9.4254913 -0.79948413 45 6
18.393526 14.443121 -0.4082118 30 7
3.3767838 2.6439309 -1.1491566 12 0
31.028013 24.285389 0.68776441 2 8
3.8830187 3.0381167 -1.1382524 13 1
4.5109439 3.5281396 -1.1131797 6 2
5.3415837 4.1748071 -1.0737664 17 3
6.6850529 5.2210612 -1.0414956 56 4
8.5511112 6.6760597 -0.94912601 41 5
12.037153 9.3909378 -0.80011219 43 6
18.393368 14.339479 -0.40709481 22 7
3.3920915 2.6368725 -1.1512272 11 0
31.103127 24.169563 0.68755502 2 8
3.890523 3.0221517 -1.1373526 13 1
4.5402889 3.5256188 -1.1173775 7 2
5.3530035 4.1537127 -1.0731405 16 3
6.6953945 5.1916103 -1.0402768 51 4
8.5838137 6.6534915 -0.95017189 45 5
12.091969 9.3659811 -0.80157757 45 6
18.471771 14.297222 -0.40772313 23 7
3.4012759 2.6250153 -1.1512272 12 0
31.263308 24.119467 0.68923044 2 8
3.8887029 2.9990332 -1.1337533 11 1
4.5556765 3.5121467 -1.1181407 5 2
5.3815532 4.1458526 -1.0759563 15 3
6.6961741 5.1548848 -1.0375956 54 4
8.6038275 6.6210599 -0.94982326 41 5
12.121425 9.3212776 -0.80136824 45 6
18.489849 14.208291 -0.40702501 27 7
3.4165516 2.6178272 -1.1532978 12 0
31.477482 24.109909 0.69209266 2 8
3.8991485 2.9854398 -1.1337533 13 1
4.5601144 3.4902558 -1.1162328 6 2
5.3708882 4.1078401 -1.0709505 22 3
6.770905 5.1748762 -1.0463703 55 4
8.6363869 6.5982413 -0.95086914 43 5
12.193574 9.3092108 -0.803985 42 6
18.579084 14.173981 -0.40789765 33 7
3.4195189 2.6012056 -1.1512272 11 0
31.561447 23.999891 0.69209266 2 8
3.9281619 2.9859631 -1.1391522 13 1
4.5628901 3.4671907 -1.113943 13 2
5.3914862 4.0938463 -1.072202 21 3
6.7572994 5.1272135 -1.0414956 54 4
8.6498442 6.5608287 -0.94982326 47 5
12.243502 9.2798643 -0.80513644 45 6
18.614098 14.098179 -0.4075835 27 7
3.4224122 2.5845954 -1.1491566 11 0
31.645023 23.889582 0.69209266 2 8
3.9323397 2.9675367 -1.1373526 13 1
4.5781007 3.4536057 -1.1147063 16 2
5.3947029 4.0666766 -1.0700119 16 3
6.7624698 5.0940413 -1.0395457 49 4
8.6790571 6.5353904 -0.95052046 47 5
12.277413 9.2382736 -0.80524111 39 6
18.715942 14.072771 -0.40873536 31 7
3.434504 2.5749519 -1.1501919 11 0
32.541111 24.388189 0.70982426 3 8
3.9473524 2.9572983 -1.1387023 16 1
76.21682 57.07975 4.9903388 52 9
4.6011276 3.4458432 -1.1173775 18 2
76.076019 56.953579 8.3143091 47 10
5.4120278 4.050189 -1.0706376 17 3
6.7913399 5.0787249 -1.0412518 56 4
8.7401142 6.5336866 -0.95470399 43 5
12.290388 9.1810141 -0.803985 36 6
18.729696 13.981043 -0.40796745 33 7
3.4403725 2.5606396 -1.1491566 11 0
32.626053 24.274443 0.70982426 3 8
3.9482687 2.9365242 -1.1360028 15 1
4.6194305 3.4344451 -1.118904 18 2
5.4261317 4.0312738 -1.0706376 17 3
76.067314 56.492569 11.633892 53 11
6.7978702 5.0467029 -1.0395457 48 4
75.862137 56.299168 14.962646 49 12
8.7500677 6.4936419 -0.95330954 47 5
75.535675 56.036396 18.281792 55 13
12.32878 9.1428118 -0.80440372 43 6
18.744648 13.890572 -0.40723446 26 7
3.459058 2.5549004 -1.1522624 12 0
32.763062 24.19034 0.71087146 3 8
3.9605737 2.9231896 -1.1364527 18 1
4.6240873 3.4116645 -1.1169959 20 2
25.536631 18.834112 2.7760847 33 10
5.4265637 4.0008049 -1.0678217 10 3
6.8019366 5.011158 -1.0373518 49 4
8.7930651 6.4756989 -0.95540124 45 5
12.400812 9.1259775 -0.80691588 41 6
18.759987 13.795715 -0.40646654 26 7
3.4523764 2.5313861 -1.147086 12 0
33.105354 24.26498 0.71645617 3 8
3.9786124 2.9151065 -1.1387023 15 1
4.6328015 3.3931811 -1.1162328 20 2
25.615076 18.75428 2.7774792 33 10
5.4468694 3.9865088 -1.0690732 10 3
25.508566 18.662607 3.8808076 10 11
6.7745242 4.9545708 -1.0305272 52 4
8.8526049 6.4720173 -0.95941037 41 5
12.461624 9.1038389 -0.80879992 41 6
18.824186 13.741933 -0.40681559 27 7
3.4596281 2.5181854 -1.1465684 10 0
19.985708 14.541796 0.43142349 1 8
3.9982204 2.9080772 -1.1414016 16 1
25.715626 18.704077 1.6664816 24 9
4.6525545 3.3827648 -1.1181407 18 2
25.649769 18.64249 2.7741673 100 10
5.460753 3.9674697 -1.0690732 8 3
25.615301 18.603798 3.887145 34 11
6.8503428 4.975245 -1.0395457 47 4
8.846118 6.4200087 -0.95627278 40 5
12.486857 9.0555964 -0.80838126 39 6
18.777365 13.612537 -0.40482602 31 7
3.4836171 2.5180151 -1.1517448 13 0
20.153761 14.56211 0.43400645 1 8
4.004683 2.8925195 -1.1405019 20 1
20.003841 14.448461 1.2932216 2 9
4.6685228 3.370764 -1.1192856 17 2
5.4770846 3.9516497 -1.069699 6 3
19.920977 14.367471 3.015779 15 11
6.8587542 4.9466925 -1.0383269 50 4
19.870842 14.32604 3.8798883 5 12
8.8932238 6.4092755 -0.9590618 32 5
19.895638 14.333366 4.7664089 2 13
12.3904 8.9231024 -0.80021685 36 6
18.888945 13.59809 -0.40625712 27 7
3.498225 2.5109556 -1.1538154 14 0
33.91795 24.336628 0.72867292 3 8
3.9984171 2.8678665 -1.1360028 12 1
4.6860566 3.3598409 -1.1208121 19 2
25.878107 18.547407 2.7854974 49 10
5.5030041 3.9426701 -1.072202 6 3
25.810751 18.485516 3.8981133 2 11
6.88728 4.9308085 -1.0400331 47 4
8.9382229 6.3944287 -0.96150213 53 5
19.831287 14.187355 4.739696 2 13
12.5109 8.9470224 -0.80607843 36 6
19.748253 14.117519 5.6044307 2 14
18.840296 13.46349 -0.40419775 28 7
3.4995375 2.4925122 -1.1512272 13 0
33.992916 24.21113 0.72846347 3 8
4.013166 2.8572836 -1.1373526 17 1
4.693543 3.3392255 -1.1196673 18 2
5.5431767 3.9407887 -1.0772078 6 3
6.9060683 4.9078851 -1.0402768 45 4
9.028718 6.4116378 -0.96882319 40 5
12.569669 8.9196033 -0.80775326 40 6
18.812153 13.344417 -0.40259212 31 7
3.5113711 2.482513 -1.1522624 12 0
34.146755 24.132534 0.72985965 3 8
4.0283856 2.8459296 -1.1387023 16 1
4.6891313 3.3114994 -1.115851 15 2
5.5601258 3.9236944 -1.0778337 10 3
6.888319 4.8573742 -1.0349146 49 4
9.1634111 6.4592857 -0.9808507 35 5
12.657881 8.9159241 -0.81141675 41 6
18.816113 13.248731 -0.40168458 28 7
3.5073655 2.4613621 -1.1481214 13 0
34.148018 23.964037 0.72818422 3 8
4.0473738 2.8392692 -1.1414016 15 1
4.7231698 3.3108869 -1.1211938 20 2
5.5811963 3.9109013 -1.0793979 13 3
6.8734922 4.8128729 -1.0302836 55 4
9.2185507 6.4501071 -0.98433697 43 5
12.664461 8.8578768 -0.80995136 37 6
18.89994 13.209322 -0.4024874 27 7
3.5250189 2.4563437 -1.1512272 11 0
34.467735 24.009287 0.7332105 3 8
4.0556598 2.8240111 -1.1409518 18 1
4.7309012 3.2929616 -1.1204305 20 2
5.5948153 3.8913941 -1.0793979 12 3
6.883729 4.7843204 -1.0293086 50 4
9.2546167 6.4297299 -0.98590571 42 5
12.69038 8.8102016 -0.80963731 40 6
18.932793 13.134145 -0.40220818 26 7
3.5335712 2.4440248 -1.1512272 13 0
34.584236 23.911562 0.73390859 3 8
4.0510654 2.7998641 -1.1369027 15 1
4.7488275 3.2808924 -1.1219569 18 2
5.6099896 3.8729646 -1.0797108 14 3
6.8758783 4.7433524 -1.0256525 49 4
9.2737226 6.3951263 -0.98555714 31 5
12.776977 8.8043776 -0.81319618 36 6
18.971935 13.063446 -0.40206856 27 7
3.5468595 2.4349544 -1.1527801 13 0
34.749928 23.847273 0.73565382 3 8
4.0624208 2.7868094 -1.1373526 13 1
4.7602515 3.2642946 -1.1219569 18 2
5.6251035 3.8544757 -1.0800236 17 3
6.8547239 4.6935258 -1.0200466 48 4
9.2642136 6.3385892 -0.98207092 41 5
12.799391 8.7540827 -0.81267279 31 6
18.916712 12.928308 -0.39993933 18 7
3.5509698 2.4186764 -1.1512272 12 0
4.0672917 2.7693205 -1.1360028 12 1
4.762444 3.2402005 -1.1196673 18 2
5.6342912 3.8305023 -1.0790851 16 3
6.8677802 4.6673393 -1.019559 44 4
9.1906834 6.2412939 -0.97196084 41 5
12.831388 8.7071152 -0.81267279 34 6
18.903801 12.822912 -0.39871767 15 7
3.5529895 2.4019377 -1.1491566 12 0
35.168213 23.765951 0.74088961 3 8
4.0951772 2.7663946 -1.1409518 13 1
4.770472 3.2213578 -1.118904 18 2
5.6476288 3.8108101 -1.0790851 14 3
6.8782558 4.6376987 -1.0185841 38 4
9.081892 6.1212063 -0.9581902 47 5
12.783842 8.6098366 -0.80775326 38 6
19.336603 13.018175 -0.40688542 11 7
3.5709763 2.3959816 -1.1522624 12 0
35.276718 23.66926 0.74151784 3 8
4.0929999 2.7451999 -1.1378024 12 1
4.788209 3.2090616 -1.1204305 18 2
5.6536713 3.7876618 -1.0778337 16 3
6.8787498 4.6049271 -1.0163903 24 4
9.0866451 6.0783868 -0.95644712 41 5
12.754211 8.5285425 -0.80408967 41 6
19.611382 13.103909 -0.41170228 9 7
3.5821183 2.3862677 -1.1532978 12 0
35.495609 23.63685 0.74438 3 8
4.0879588 2.7211766 -1.1337533 11 1
4.8037286 3.1964273 -1.1215754 19 2
5.6668591 3.7679019 -1.0778337 14 3
6.912971 4.5929694 -1.0190716 17 4
9.0801983 6.030582 -0.9536581 33 5
12.908717 8.5667963 -0.81194013 19 6
19.680332 13.050848 -0.41219094 9 7
3.5936491 2.375879 -1.154333 12 0
35.577896 23.512812 0.74438 3 8
4.1071863 2.7133381 -1.1364527 17 1
4.8001137 3.1699014 -1.1181407 26 2
5.6733794 3.7437503 -1.0765822 20 3
6.9455352 4.5797362 -1.0215088 21 4
9.0828905 5.9867945 -0.95174068 29 5
13.068646 8.6073704 -0.82010454 10 6
19.709068 12.971073 -0.4118419 9 7
3.5922279 2.3569641 -1.1512272 13 0
4.1182628 2.7000523 -1.1369027 13 1
4.8111486 3.1531277 -1.1181407 23 2
5.6979823 3.7314975 -1.0787722 16 3
6.9913769 4.5750308 -1.0258962 13 4
9.0853939 5.9430532 -0.94982326 21 5
13.101954 8.5638866 -0.82031387 10 6
19.720743 12.88032 -0.41114378 8 7
3.5988147 2.3433554 -1.1507095 13 0
4.130929 2.6877866 -1.1378024 12 1
4.8270621 3.1395264 -1.1192856 17 2
5.7076592 3.7094336 -1.0781465 11 3
7.0206237 4.5592456 -1.0278461 19 4
9.1896391 5.9655466 -0.95853883 11 5
13.130094 8.5170107 -0.82020921 11 6
19.752151 12.802716 -0.41086456 8 7
3.598861 2.3255358 -1.1481214 12 0
4.135375 2.6701784 -1.1364527 13 1
4.8396425 3.1237214 -1.1196673 18 2
5.7106133 3.6830618 -1.0762693 12 3
7.0398326 4.5368638 -1.0283337 24 4
9.2154341 5.9366674 -0.9590618 16 5
13.126155 8.4495077 -0.81811577 11 6
19.83036 12.755321 -0.41156265 8 7
3.621592 2.3223453 -1.1527801 13 0
4.1463122 2.6567774 -1.1369027 15 1
4.852169 3.1078687 -1.1200489 19 2
5.7300911 3.6673634 -1.0775207 12 3
7.062315 4.516542 -1.0293086 28 4
9.2310658 5.9012413 -0.95853883 17 5
13.138736 8.392889 -0.81706899 11 6
19.871389 12.683874 -0.41149285 9 7
3.6296771 2.3096881 -1.1527801 14 0
36.151558 22.995642 0.7478705 3 8
4.1522713 2.6401973 -1.1360028 13 1
4.8431058 3.0782735 -1.1154695 16 2
5.749527 3.6515772 -1.0787722 12 3
7.0763621 4.490797 -1.0290648 27 4
9.2600193 5.874321 -0.95941037 16 5
13.171329 8.3491106 -0.81727839 13 6
19.905413 12.608007 -0.41128343 9 7
3.6311827 2.2928791 -1.1507095 14 0
36.316166 22.922667 0.74961579 3 8
4.1631098 2.6267278 -1.1364527 13 1
4.8488393 3.0582085 -1.1143246 15 2
5.7689223 3.635699 -1.0800236 13 3
7.1020727 4.4724164 -1.0305272 27 4
9.280467 5.8419638 -0.95941037 16 5
13.193627 8.2988319 -0.81685966 11 6
19.94253 12.534186 -0.41114378 8 7
3.6326168 2.2760863 -1.148639 13 0
36.480701 22.848824 0.75136101 3 8
4.1755562 2.6142492 -1.1373526 15 1
4.8578215 3.0402212 -1.113943 16 2
5.7782273 3.6134458 -1.0793979 12 3
7.1344776 4.4581165 -1.0329647 27 4
9.2957325 5.8063693 -0.95888752 17 5
13.236072 8.2611828 -0.81769705 11 6
20.006521 12.4772 -0.41156265 8 7
3.6421797 2.2644129 -1.1491566 13 0
36.475311 22.668573 0.74961579 3 8
4.1730695 2.592458 -1.1342032 15 1
4.8667359 3.0222111 -1.1135614 16 2
5.780736 3.5870039 -1.0775207 13 3
7.1533689 4.4352789 -1.0334522 27 4
9.3294935 5.78228 -0.96028197 17 5
13.251243 8.206521 -0.81685966 11 6
20.083965 12.428329 -0.41226077 9 7
3.6513135 2.2533362 -1.1496743 14 0
36.574108 22.562199 0.75010449 3 8
4.179986 2.5775816 -1.1337533 18 1
4.8867598 3.0122354 -1.115851 18 2
5.8010097 3.5729923 -1.0790851 14 3
7.1646557 4.4094534 -1.0329647 26 4
9.3621941 5.7596593 -0.96167642 17 5
13.295398 8.1729946 -0.81790644 12 6
20.114841 12.355383 -0.41205132 8 7
3.675632 2.2506659 -1.1548507 14 0
36.850491 22.555481 0.75415337 3 8
4.1922808 2.565012 -1.1346531 17 1
4.8888698 2.9900384 -1.113943 16 2
5.813447 3.5527198 -1.0790851 14 3
7.1816988 4.3854494 -1.0332084 25 4
9.3890457 5.7310944 -0.96237373 18 5
13.337489 8.1348515 -0.81874377 11 6
20.154428 12.283016 -0.41198149 9 7
3.6620028 2.2247813 -1.1481214 16 0
4.1978779 2.5483391 -1.1337533 15 1
4.8959208 2.9709167 -1.1131797 16 2
5.8325667 3.5365062 -1.0803366 11 3
7.2037535 4.3644705 -1.0341833 25 4
9.4055815 5.6962271 -0.96202505 18 5
13.365806 8.0882425 -0.81874377 12 6
20.200609 12.214654 -0.41205132 9 7
3.666436 2.2099926 -1.147086 19 0
4.2150946 2.5386958 -1.1360028 15 1
4.9028955 2.9517868 -1.1124165 17 2
5.8499551 3.5191784 -1.0812751 13 3
7.2274528 4.3444095 -1.0354021 27 4
9.4168701 5.6582274 -0.96115357 16 5
13.411078 8.0518208 -0.81979048 12 6
20.267122 12.158483 -0.41253999 9 7
3.6774445 2.1991632 -1.1481214 16 0
4.2105474 2.5159714 -1.1324036 20 1
4.9131703 2.934653 -1.1124165 17 2
5.8588109 3.4967134 -1.0806495 13 3
7.2476897 4.3222032 -1.0361333 26 4
9.4451189 5.630425 -0.96202505 17 5
13.442537 8.007 -0.81999987 13 6
20.292259 12.077431 -0.41219094 9 7
3.6850991 2.186312 -1.1481214 18 0
4.2092466 2.4952948 -1.1297042 20 1
4.9233851 2.9174836 -1.1124165 16 2
5.8709817 3.4762397 -1.0806495 13 3
7.2695632 4.3009253 -1.0371082 26 4
9.4750071 5.6035037 -0.96307093 16 5
13.468683 7.9590135 -0.81989515 13 6
20.344627 12.012618 -0.41240036 9 7
3.7043624 2.1802957 -1.1517448 15 0
37.531525 22.081303 0.76008719 3 8
4.2212901 2.482563 -1.1306039 20 1
4.9301534 2.8982913 -1.1116532 16 2
5.8950043 3.4627268 -1.0828395 14 3
7.2759733 4.2704978 -1.0358895 27 4
9.5065393 5.5774508 -0.9642911 18 5
13.515334 7.9230642 -0.82104653 13 6
20.400238 11.94962 -0.41267961 8 7
3.7002726 2.160532 -1.1481214 16 0
37.656723 21.978392 0.76106453 3 8
4.2282467 2.4668319 -1.1301541 18 1
4.9317613 2.8761179 -1.1097453 18 2
5.9138818 3.4461079 -1.0840909 16 3
7.2908349 4.2450752 -1.0358895 27 4
9.5242271 5.5432324 -0.96411681 17 5
13.546365 7.8778434 -0.82125586 11 6
20.45566 11.886369 -0.41295883 8 7
3.7111342 2.1495395 -1.1491566 15 0
37.857822 21.918943 0.7635777 3 8
4.245266 2.4569373 -1.1324036 22 1
4.9400706 2.857903 -1.1093636 17 2
5.9207435 3.4224789 -1.0831524 14 3
7.315186 4.2268314 -1.0373518 27 4
9.5452433 5.510951 -0.9642911 18 5
13.59454 7.8424892 -0.82251197 13 6
20.505358 11.824468 -0.41316828 8 7
3.713217 2.1343338 -1.1476036 14 0
37.930305 21.79327 0.7635777 3 8
4.2533903 2.4428446 -1.1324036 22 1
4.954628 2.844439 -1.1105084 18 2
5.9269209 3.3998756 -1.0822138 16 3
7.3291616 4.2025518 -1.0373518 28 4
9.5721111 5.4842172 -0.96516263 17 5
13.617007 7.7953768 -0.82230264 11 6
20.544458 11.756399 -0.41316828 8 7
3.7169192 2.1200933 -1.1465684 15 0
4.2479229 2.4210079 -1.1288043 22 1
91.205681 51.959538 5.5011377 18 9
4.9611158 2.8251824 -1.1097453 18 2
5.9381618 3.3802037 -1.0822138 14 3
7.3455124 4.1779218 -1.0375956 29 4
9.6015882 5.4566793 -0.96620852 17 5
13.647607 7.7497721 -0.82251197 12 6
20.592323 11.688566 -0.41330791 8 7
3.7414799 2.1159668 -1.1517448 14 0
38.454041 21.738548 0.77104729 4 8
4.2567682 2.405421 -1.1288043 25 1
4.9680176 2.8050506 -1.108982 18 2
5.9539523 3.360357 -1.0828395 15 3
7.3538599 4.1470728 -1.0366207 30 4
9.6354113 5.4292736 -0.96760303 17 5
13.695066 7.710474 -0.82366335 13 6
20.635029 11.613008 -0.41330791 8 7
3.7357302 2.0946796 -1.1476036 14 0
38.509037 21.583782 0.77055866 4 8
4.2740564 2.3945665 -1.1310539 26 1
4.9709277 2.7838533 -1.1074555 18 2
5.9696755 3.3404427 -1.0834652 16 3
7.379405 4.125906 -1.0380832 30 4
9.6595221 5.3985248 -0.968126 20 5
13.744565 7.6752844 -0.82502413 12 6
20.680944 11.539252 -0.4133777 8 7
3.7295122 2.074116 -1.1434625 14 0
38.433842 21.365662 0.76755685 12 8
4.2772789 2.376792 -1.1297042 23 1
4.9806142 2.7664857 -1.1074555 18 2
5.9813004 3.3195825 -1.0834652 15 3
7.3972354 4.1020451 -1.0385706 30 4
9.6765661 5.3638058 -0.96795171 18 5
13.788742 7.6369395 -0.82607079 12 6
20.738592 11.476679 -0.41372675 8 7
3.7451878 2.0657492 -1.1460507 15 0
38.504688 21.229429 0.76748705 4 8
4.2821341 2.3599687 -1.1288043 23 1
4.9988394 2.7538185 -1.1093636 17 2
5.9893885 3.296783 -1.0828395 15 3
7.4212337 4.0832319 -1.0400331 34 4
9.7109394 5.3386407 -0.96952045 18 5
13.817069 7.5897198 -0.82617551 14 6
20.776533 11.407848 -0.41372675 8 7
3.7621851 2.0588837 -1.1491566 16 0
38.645058 21.140005 0.76888323 4 8
4.2813888 2.34108 -1.126555 23 1
5.0079432 2.7372274 -1.1093636 17 2
6.003756 3.278795 -1.0834652 14 3
7.4329901 4.0576501 -1.0397893 31 4
9.7373362 5.3111763 -0.97039205 17 5
13.849178 7.547678 -0.82659417 14 6
20.8283 11.346536 -0.41400599 8 7
3.7622018 2.0427082 -1.147086 15 0
38.64463 20.973608 0.76748705 4 8
4.2874146 2.3259408 -1.126105 22 1
5.0049124 2.7140529 -1.1066922 18 2
6.0180693 3.2607515 -1.0840909 14 3
68.244751 36.961391 9.5294514 18 11
7.4366355 4.0260072 -1.0383269 31 4
9.7671604 5.2854962 -0.97161222 18 5
67.628822 36.58202 14.945687 25 13
13.888185 7.5093126 -0.82743156 13 6
20.871304 11.275658 -0.41407582 9 7
3.7625039 2.0259023 -1.1450155 16 0
39.230022 21.114365 0.77764434 8 8
4.3040891 2.3155761 -1.1283545 23 1
5.0160842 2.6974969 -1.1070738 19 2
6.039856 3.2453327 -1.0859681 16 3
67.736786 36.381065 9.440731 17 11
7.4506426 4.0000253 -1.0383269 33 4
9.7908182 5.2541938 -0.97213513 17 5
66.600426 35.725819 14.690767 24 13
13.919592 7.463623 -0.82774556 13 6
20.889387 11.191397 -0.41365695 9 7
3.766145 2.0109355 -1.1439801 18 0
39.227634 20.9368 0.77614343 8 8
4.3241806 2.3069596 -1.1315038 25 1
5.0254688 2.6799719 -1.1070738 19 2
6.045917 3.2214444 -1.0850296 17 3
67.863358 36.144413 9.440731 17 11
7.4820833 3.98332 -1.0407642 33 4
9.8126163 5.2218599 -0.97248381 18 5
13.956142 7.4206114 -0.82837361 12 6
20.935379 11.122177 -0.41379654 8 7
3.7799714 2.0013919 -1.1460507 18 0
39.311077 20.805361 0.77635282 4 8
4.3218722 2.2863827 -1.1288043 22 1
5.0382652 2.664248 -1.1078371 19 2
6.0553794 3.1993961 -1.0847167 16 3
7.5082302 3.9636672 -1.0424705 35 4
9.8343096 5.1894326 -0.97283238 17 5
67.897057 35.813213 14.921265 25 13
13.989026 7.3755794 -0.82879227 13 6
20.977617 11.05089 -0.41386637 8 7
3.790355 1.989982 -1.147086 16 0
4.3211994 2.2667553 -1.126555 22 1
5.0510116 2.6484694 -1.1086004 19 2
6.0752602 3.1828213 -1.0862811 16 3
7.5149846 3.9337535 -1.0414956 35 4
9.862958 5.1606121 -0.97387826 17 5
14.000525 7.3193035 -0.82795489 11 6
21.023151 10.981305 -0.41400599 8 7
3.8041329 1.980306 -1.1491566 16 0
40.182659 20.908878 0.79066378 4 8
4.3308134 2.2525578 -1.1270047 23 1
5.0567427 2.6290092 -1.1078371 19 2
6.0898385 3.1634181 -1.0869068 17 3
7.5304322 3.9084098 -1.0417392 31 4
67.620148 35.08091 12.065479 21 12
9.8809099 5.1261549 -0.97387826 17 5
60.469917 31.358023 13.240619 18 13
14.03663 7.2758989 -0.82858294 12 6
59.634029 30.898148 15.505876 29 14
21.043602 10.898653 -0.41365695 8 7
3.8041553 1.9634719 -1.147086 16 0
40.383362 20.834492 0.79317695 4 8
4.3473101 2.2418935 -1.1292543 26 1
5.0571632 2.6068454 -1.105929 20 2
6.1113801 3.1475694 -1.088784 17 3
7.5546203 3.8875515 -1.0432017 33 4
9.9022884 5.0934525 -0.97422689 18 5
60.198372 30.951065 13.157426 18 13
14.074374 7.2332511 -0.82931566 14 6
58.354813 29.977413 15.145954 26 14
21.113539 10.841566 -0.41428521 8 7
59.0144 30.290253 17.774139 35 15
3.8041072 1.9466596 -1.1450155 18 0
4.3585787 2.2284801 -1.1301541 23 1
5.0749731 2.5936425 -1.1078371 20 2
6.1117735 3.1208286 -1.0869068 16 3
7.5681453 3.8611553 -1.0432017 33 4
66.962387 34.148529 11.90529 21 12
9.9200039 5.0588632 -0.97422689 17 5
60.355026 30.765692 13.168111 18 13
14.117337 7.1931424 -0.83036238 14 6
21.158379 10.771432 -0.41442484 9 7
58.93383 29.989431 17.718235 35 15
3.814662 1.9344522 -1.1460507 18 0
4.3632426 2.2107255 -1.1292543 23 1
5.0861959 2.5759122 -1.1082187 20 2
78.039925 39.506336 7.6526222 34 10
6.1231732 3.0984025 -1.0869068 16 3
7.5981889 3.8414531 -1.0453953 34 4
66.837914 33.791569 11.862114 20 12
9.9455957 5.0260577 -0.97492415 18 5
14.148952 7.1440549 -0.83067638 12 6
58.098103 29.321997 15.024481 25 14
21.227987 10.713723 -0.41505313 8 7
58.641441 29.583414 17.599178 33 15
3.8282962 1.9245946 -1.1481214 16 0
4.3583593 2.19012 -1.126105 23 1
5.0934029 2.5572603 -1.1078371 19 2
6.1404753 3.0816255 -1.0881582 17 3
7.6144366 3.8180132 -1.0458828 30 4
57.691132 28.914753 10.220804 16 12
9.9844532 5.0020266 -0.97701591 17 5
58.925365 29.520521 12.810916 16 13
14.151136 7.0863605 -0.82942033 12 6
57.132011 28.597107 14.75004 23 14
21.272404 10.643152 -0.41519275 8 7
58.768543 29.390617 17.606424 34 15
3.8311992 1.9101657 -1.147086 16 0
43.512436 21.685049 0.84860581 5 8
4.3712106 2.177501 -1.1274546 22 1
69.674866 34.708252 4.0794835 17 9
5.1053696 2.5421073 -1.1086004 20 2
69.566994 34.624256 6.7984967 21 10
6.1582685 3.0636933 -1.0894097 17 3
69.352692 34.487354 9.5101967 18 11
7.6206074 3.787874 -1.0449078 34 4
57.592125 28.626551 10.186388 16 12
10.013477 4.9750924 -0.97823608 21 5
58.915524 29.258751 12.786492 16 13
14.175788 7.0369167 -0.82942033 12 6
57.371136 28.466814 14.786033 23 14
21.343409 10.590322 -0.41589087 8 7
58.979912 29.252241 17.640589 34 15
3.8378429 1.8967814 -1.147086 19 0
4.385396 2.1664469 -1.1292543 23 1
5.1071692 2.5207958 -1.1070738 20 2
6.1630793 3.0406342 -1.0884712 16 3
7.6384659 3.7652204 -1.0456392 33 4
57.87241 28.514431 10.2183 16 12
10.034358 4.9418664 -0.97858465 20 5
57.867435 28.499393 12.538442 15 13
14.209792 6.995172 -0.83004832 12 6
57.339325 28.214472 14.75364 23 14
21.401781 10.52634 -0.41630971 8 7
68.606438 33.728802 20.484493 61 15
3.8406422 1.8823446 -1.1460507 19 0
44.395317 21.749041 0.86291683 5 8
4.3911815 2.1502674 -1.1288043 25 1
5.1190267 2.5055733 -1.1078371 20 2
6.1789799 3.0217042 -1.0894097 16 3
58.573147 28.631372 8.0051107 12 11
7.6622639 3.7437606 -1.0471015 33 4
58.149109 28.39892 10.249588 16 12
10.045318 4.9059424 -0.97806168 18 5
57.716015 28.174965 12.484251 15 13
14.248485 6.9525304 -0.83088571 12 6
57.211521 27.903931 14.695602 22 14
21.477936 10.470853 -0.4170776 8 7
3.8506651 1.8706142 -1.147086 19 0
44.47097 21.593929 0.86291683 5 8
4.3969073 2.1340766 -1.1283545 23 1
73.391205 35.605225 4.2750106 21 9
5.1348081 2.4911156 -1.1093636 20 2
73.329636 35.559502 7.1300373 24 10
6.1806016 2.9958105 -1.0878454 16 3
58.47266 28.329786 7.9778118 12 11
7.6877928 3.7230461 -1.0488076 34 4
58.237206 28.190615 10.24771 16 12
10.087488 4.8830037 -0.98050213 16 5
57.778671 27.956209 12.476619 15 13
14.276265 6.9044876 -0.8310951 12 6
57.378746 27.737993 14.713599 23 14
21.525158 10.401042 -0.41728705 8 7
57.978325 28.002844 17.252361 30 15
3.8571711 1.8571622 -1.147086 19 0
44.610928 21.469812 0.86417335 5 8
4.4060864 2.1195588 -1.1288043 23 1
61.390347 29.518787 3.5699408 12 9
5.1434731 2.4731753 -1.1093636 19 2
61.231422 29.429253 5.9436731 17 10
6.1963634 2.9767826 -1.088784 16 3
73.384445 35.238708 9.9954805 23 11
7.7025313 3.6970489 -1.0490514 33 4
58.39938 28.017902 10.258973 16 12
10.12064 4.8555155 -0.98207092 18 5
58.028156 27.827347 12.509439 15 13
14.285869 6.8477082 -0.83025765 12 6
57.580673 27.588041 14.740592 23 14
21.622656 10.355203 -0.41847381 8 7
58.089649 27.806976 17.256502 30 15
3.8740916 1.8486778 -1.1501919 19 0
4.4169755 2.1058443 -1.1297042 25 1
61.539879 29.326666 3.5726619 12 9
5.1449847 2.4518287 -1.1078371 19 2
61.351772 29.223886 5.945416 17 10
6.213851 2.958533 -1.0900354 16 3
61.12468 29.089544 8.3117332 81 11
7.7082186 3.6667302 -1.0480764 33 4
58.59317 27.859671 10.275868 16 12
10.148324 4.8252888 -0.98311675 20 5
58.082371 27.604404 12.500279 15 13
14.336744 6.8106585 -0.83182776 13 6
60.257332 28.61227 15.40015 100 14
21.683958 10.291671 -0.41896245 8 7
58.556381 27.779591 17.36624 31 15
3.8735361 1.8318387 -1.1481214 19 0
41.219883 19.484568 0.79582971 4 8
4.4278231 2.0920789 -1.1306039 25 1
5.153513 2.4338531 -1.1078371 19 2
6.2277131 2.9385087 -1.0906612 17 3
7.7281523 3.6431887 -1.0490514 33 4
10.163302 4.7889881 -0.98294246 16 5
58.043396 27.337898 12.471276 15 13
14.364044 6.7622766 -0.83203709 13 6
60.39209 28.41836 15.409146 28 14
21.73604 10.223572 -0.41927662 6 7
58.530617 27.517469 17.330006 31 15
3.8799064 1.8183074 -1.1481214 16 0
41.20797 19.303228 0.79429388 4 8
4.4350991 2.0766091 -1.1306039 22 1
5.1655331 2.4175148 -1.1086004 20 2
6.2379317 2.9167533 -1.0906612 16 3
61.570854 28.776415 8.344883 13 11
7.751615 3.6212296 -1.0505139 31 4
10.181762 4.7543273 -0.98311675 22 5
58.063747 27.100264 12.455248 15 13
14.389372 6.7129359 -0.83214176 12 6
58.926105 27.477709 15.010534 25 14
21.762531 10.143417 -0.4191021 5 7
58.612309 27.30648 17.325865 31 15
3.882726 1.8031243 -1.147086 19 0
4.4440889 2.0619364 -1.1310539 22 1
5.1846271 2.4044237 -1.11089 19 2
6.2444906 2.8933017 -1.0900354 17 3
7.7786207 3.6008184 -1.0524638 33 4
10.203718 4.7212696 -0.98363966 18 5
14.409093 6.6609869 -0.83193243 12 6
58.731533 27.137808 14.936749 24 14
58.545906 27.027208 17.278242 30 15
3.8960147 1.7927929 -1.1491566 16 0
4.4424062 2.0423398 -1.1288043 23 1
5.1965561 2.3879519 -1.1116532 20 2
6.2563477 2.8723092 -1.0903484 16 3
7.7911415 3.5736458 -1.0524638 31 4
60.366264 27.676085 10.518028 17 12
10.227384 4.6889424 -0.98433697 16 5
14.435886 6.6123157 -0.83214176 12 6
48.860943 22.370296 12.406501 11 14
22.912909 10.485517 -0.43983555 12 7
58.815563 26.903051 17.330006 31 15
3.9127965 1.7839901 -1.1522624 18 0
40.738224 18.565468 0.78144896 4 8
4.4441876 2.0243979 -1.1274546 23 1
5.2012858 2.3681719 -1.11089 19 2
61.406368 27.94566 5.9025359 16 10
6.2807202 2.8569977 -1.0928513 14 3
7.7963395 3.5431402 -1.0514888 31 4
10.252759 4.657331 -0.98520851 15 5
14.467975 6.5660076 -0.83266515 11 6
48.415207 21.962105 12.27378 11 14
23.000362 10.428597 -0.44081289 12 7
59.349014 26.896925 17.459415 32 15
3.908437 1.7655481 -1.1491566 18 0
4.4601088 2.0128794 -1.1297042 23 1
5.2077317 2.3491929 -1.1105084 18 2
6.3014607 2.8399243 -1.0947285 15 3
7.8195181 3.5207994 -1.0529512 31 4
60.648079 27.29451 10.533673 17 12
10.27077 4.6223335 -0.9853828 18 5
58.529575 26.3288 12.475093 15 13
14.518126 6.5277605 -0.83423519 11 6
48.656876 21.867273 12.31562 11 14
23.038454 10.349061 -0.44084781 16 7
3.9145756 1.7518952 -1.1491566 18 0
4.4760036 2.0012743 -1.1319537 22 1
5.2194843 2.3326035 -1.1112716 18 2
6.3095331 2.8171041 -1.0944157 16 3
7.8390136 3.4967158 -1.0539262 33 4
10.290483 4.5880733 -0.98573142 18 5
60.342636 26.891535 12.841446 17 13
14.549949 6.4811029 -0.83475858 11 6
48.558453 21.619606 12.27153 11 14
23.047031 10.256389 -0.44032422 18 7
59.383537 26.414444 17.4149 32 15
3.9241996 1.7397851 -1.1501919 18 0
4.474052 1.9816951 -1.1297042 25 1
5.2365708 2.318342 -1.1131797 20 2
61.670128 27.289816 5.9000955 16 10
6.3139067 2.7926698 -1.093477 16 3
7.8620672 3.474143 -1.0553887 33 4
10.311901 4.5545468 -0.98625439 21 5
60.292454 26.617287 12.810916 16 13
14.56883 6.428658 -0.83454925 11 6
48.432125 21.361143 12.220692 11 14
23.247374 10.248468 -0.44346565 18 7
59.185459 26.079227 17.330006 31 15
3.9302475 1.7260792 -1.1501919 16 0
4.4791584 1.9652816 -1.1292543 26 1
68.580124 30.075996 3.9245691 15 9
5.2518244 2.3032017 -1.1147063 20 2
68.315948 29.945965 6.5258737 19 10
6.3254256 2.771404 -1.0937898 16 3
7.8777823 3.448272 -1.0558761 28 4
10.34234 4.52491 -0.9876489 18 5
61.284405 26.799959 13.001726 17 13
14.59667 6.3801665 -0.83486325 11 6
23.343485 10.193661 -0.44461751 15 7
48.574944 21.201698 14.201402 11 15
3.9468784 1.7169725 -1.1532978 19 0
4.4913521 1.9519653 -1.1306039 25 1
5.2544284 2.2825122 -1.1135614 20 2
6.3495579 2.7556 -1.0962929 16 3
7.8879499 3.4199605 -1.0556324 30 4
67.80201 29.382706 11.703802 20 12
10.365384 4.4919472 -0.9883461 20 5
61.44241 26.614004 13.015465 17 13
14.644514 6.340282 -0.83632863 10 6
23.518406 10.172464 -0.4472703 22 7
48.63802 21.027397 14.198296 11 15
3.9492996 1.7016548 -1.1522624 15 0
40.82056 17.580116 0.77579439 4 8
4.5088787 1.9408976 -1.1333034 25 1
42.351082 18.221741 2.4162467 3 9
5.2533474 2.2602761 -1.1116532 20 2
6.3700275 2.7380979 -1.09817 17 3
7.9089599 3.3963237 -1.0568511 31 4
10.376286 4.4515715 -0.98782319 17 5
14.683076 6.2962117 -0.83727074 10 6
23.662222 10.13676 -0.44932964 19 7
48.89938 20.938084 14.253165 11 15
3.9484017 1.6841376 -1.1501919 16 0
41.006752 17.490877 0.7781679 4 8
4.5156264 1.9251456 -1.1333034 25 1
5.2742395 2.2463925 -1.1143246 21 2
6.3836551 2.7162805 -1.0987958 16 3
7.9372063 3.3756895 -1.0590447 34 4
10.402762 4.4200015 -0.98886907 18 5
14.718925 6.2478118 -0.83800346 12 6
23.811594 10.10253 -0.45149374 19 7
60.155632 25.509769 17.508074 33 15
3.9649346 1.6748542 -1.1532978 19 0
41.125854 17.363787 0.77921504 4 8
4.5190611 1.9070679 -1.1324036 23 1
5.2892847 2.231019 -1.115851 20 2
6.3858166 2.6909106 -1.0975443 16 3
7.9641628 3.3527348 -1.0609946 35 4
10.421802 4.3852048 -0.98921764 17 5
14.748007 6.1994939 -0.83842206 11 6
23.942583 10.059622 -0.45330879 27 7
3.9707565 1.6610047 -1.1532978 19 0
41.367687 17.304491 0.78270555 4 8
4.5217638 1.890569 -1.1315038 25 1
49.84819 20.831497 2.8313756 31 9
5.302475 2.2148135 -1.1169959 21 2
49.790894 20.787167 4.7205291 60 10
6.4019961 2.6727653 -1.0987958 17 3
49.634136 20.711525 6.6036124 13 11
7.9789009 3.327836 -1.0614821 34 4
49.505981 20.637762 8.495018 10 12
10.440724 4.3503289 -0.98956627 16 5
49.303616 20.543301 10.382299 9 13
14.759264 6.1467171 -0.83789873 10 6
49.082966 20.431259 12.274229 11 14
24.029249 9.997488 -0.45428613 30 7
3.9798124 1.6493059 -1.154333 19 0
41.612591 17.236498 0.78619599 4 8
4.5355372 1.8777562 -1.1333034 23 1
5.3116055 2.1979671 -1.1173775 22 2
6.4204144 2.6541765 -1.1003602 16 3
7.9776263 3.2946582 -1.0597758 33 4
10.458776 4.317205 -0.98991495 17 5
49.364132 20.366592 10.38001 9 13
14.804637 6.1050558 -0.83925951 11 6
49.193615 20.27615 12.284127 11 14
24.064119 9.9185162 -0.45432106 30 7
48.833305 20.117672 14.151708 11 15
3.9855449 1.6354046 -1.154333 20 0
4.5453458 1.8641833 -1.1342032 25 1
5.3228779 2.1809025 -1.1181407 21 2
75.367935 30.864573 7.1253304 24 10
6.4419775 2.6381097 -1.1025503 18 3
8.0050449 3.2749481 -1.0619696 34 4
10.471937 4.2799191 -0.98974061 18 5
14.846989 6.0649872 -0.84051555 12 6
24.070818 9.8231277 -0.45379746 19 7
3.9912288 1.6214833 -1.154333 15 0
41.917187 17.020802 0.7896865 4 8
4.5665941 1.8533727 -1.1378024 23 1
63.244072 25.667891 3.5770581 12 9
5.3286386 2.161572 -1.1177591 23 2
63.168972 25.611736 5.9635444 17 10
6.4479423 2.6129951 -1.1019244 17 3
8.0280333 3.2500575 -1.063432 34 4
49.217827 19.925274 8.4099178 10 12
10.486814 4.2433367 -0.98974061 18 5
49.526947 20.030327 10.384589 9 13
14.895041 6.0210118 -0.84198099 12 6
24.149462 9.7570171 -0.4546352 11 7
50.072418 20.220436 14.469538 11 15
3.996865 1.6075404 -1.154333 16 0
42.344448 17.030951 0.79666746 4 8
