# .PCD v0.7 - Point Cloud Data file format
VERSION 0.7
FIELDS x y z intensity ring
SIZE 4 4 4 4 2
TYPE F F F F U
COUNT 1 1 1 1 1
WIDTH 1308
HEIGHT 1
VIEWPOINT 0 0 0 1 0 0 0
POINTS 1308
DATA ascii
36.699841 -1.4483559 0.64109671 21 8
5.2068419 -0.20639774 -1.2030382 23 1
32.892761 -1.3096097 1.7252026 2 9
6.1204619 -0.24475321 -1.1906482 30 2
37.261772 -1.4900736 3.262588 3 10
7.4253807 -0.29823411 -1.177013 18 3
31.656328 -1.2769835 3.8900697 2 11
9.2865849 -0.37623465 -1.1411846 38 4
44.428967 -1.8077525 7.0426803 6 12
12.457977 -0.50907564 -1.0908413 20 5
41.179939 -1.6899527 8.0113077 4 13
18.963856 -0.78155887 -0.99469727 12 6
29.841063 -1.2298421 6.8951998 3 14
23.92787 -0.9903245 -0.41802004 1 7
31.921404 -1.3267411 8.5606985 3 15
4.5067167 -0.19361532 -1.2086849 18 0
36.692287 -1.5827717 0.64106178 26 8
5.202157 -0.22531176 -1.2021384 22 1
41.597862 -1.8016541 2.1820955 18 9
6.1293778 -0.26654261 -1.1925563 30 2
37.252079 -1.6264608 3.2622392 3 10
7.4163442 -0.32510144 -1.1757616 18 3
37.275715 -1.6405295 4.5813127 2 11
9.2930756 -0.41061968 -1.1421596 37 4
42.492352 -1.8775481 6.7366948 5 12
12.468067 -0.55308878 -1.0918871 20 5
30.645473 -1.3648055 5.9627814 2 13
18.949039 -0.84721506 -0.99406928 9 6
31.483328 -1.4131314 7.2758169 3 14
23.896299 -1.072587 -0.41753137 1 7
31.982193 -1.4411162 8.5782986 3 15
4.517592 -0.20988344 -1.2117908 16 0
36.688835 -1.7045317 0.64109671 21 8
5.1877551 -0.24192603 -1.1989892 22 1
41.798805 -1.9565587 2.1929815 12 9
6.1342931 -0.28821293 -1.1937011 27 2
7.4231176 -0.35006535 -1.177013 17 3
37.329556 -1.766947 4.588625 2 11
9.2976112 -0.44171697 -1.1428908 36 4
32.915836 -1.5695448 5.2192802 3 12
12.478001 -0.59717858 -1.0929331 21 5
32.276264 -1.5446939 6.2810512 2 13
18.964081 -0.91091013 -0.99501133 5 6
29.905712 -1.4417061 6.9122958 3 14
23.922367 -1.1574436 -0.41805494 1 7
30.749758 -1.4931549 8.2490807 5 15
4.5284481 -0.22543949 -1.2148967 18 0
36.714615 -1.8341856 0.64165521 18 8
5.1966105 -0.26052105 -1.2012386 23 1
41.749832 -2.1003447 2.1907833 9 9
6.1352644 -0.30865198 -1.1940827 28 2
32.285404 -1.6298587 2.8282037 2 10
7.4336872 -0.37657437 -1.1788902 18 3
31.861282 -1.6195979 3.9171247 8 11
9.2880831 -0.47376451 -1.1419159 36 4
30.357363 -1.5537738 4.8144274 2 12
12.503809 -0.63997954 -1.0953734 18 5
31.709921 -1.6285505 6.1719079 30 13
18.990705 -0.97864348 -0.99658144 4 6
31.517742 -1.6297116 7.2861652 50 14
23.930164 -1.2415628 -0.41826439 1 7
31.400301 -1.6346294 8.4250784 100 15
4.5160584 -0.24062862 -1.2117908 18 0
31.04294 -1.6594907 0.5426302 2 8
5.1937232 -0.27855465 -1.2007887 25 1
6.1282682 -0.32974973 -1.1929379 26 2
31.959211 -1.7252548 2.8001397 88 10
7.4441624 -0.40316141 -1.1807675 17 3
31.918863 -1.734251 3.9249244 91 11
9.3022308 -0.50704741 -1.1438658 36 4
31.785709 -1.7381448 5.0418835 71 12
12.505477 -0.68383962 -1.095722 18 5
31.702084 -1.7391214 6.1715264 82 13
19.005121 -1.0459151 -0.99752343 8 6
31.556612 -1.7421898 7.2965121 58 14
23.885752 -1.3228756 -0.41756627 1 7
31.400188 -1.7445483 8.426631 6 15
4.5074763 -0.25595304 -1.2097203 19 0
32.005241 -1.8229933 0.55955905 68 8
5.2043929 -0.29734939 -1.2034881 25 1
6.1329598 -0.35147637 -1.1940827 26 2
31.803812 -1.8282269 2.7870662 22 10
7.4289055 -0.42834798 -1.1785774 17 3
31.930452 -1.8466899 3.9271183 17 11
9.3103113 -0.54008996 -1.1450845 34 4
30.66161 -1.778676 4.8644867 2 12
12.508981 -0.72783494 -1.0962449 18 5
31.785975 -1.8550332 6.1890807 19 13
19.017303 -1.1131825 -0.99836075 8 6
31.453072 -1.8466218 7.2740173 29 14
23.881235 -1.4020764 -0.41756627 1 7
70.182373 -4.1327252 18.837887 45 15
4.5142689 -0.27215052 -1.2117908 19 0
36.709751 -2.2131109 0.64193439 15 8
5.1994872 -0.31437093 -1.2025883 25 1
31.124043 -1.8872712 1.634138 1 9
6.1258173 -0.37252474 -1.1929379 25 2
32.012012 -1.9523306 2.8058918 2 10
7.4294157 -0.45310101 -1.1788902 17 3
41.890541 -2.5621355 5.1531234 3 11
9.314414 -0.57132578 -1.1458156 36 4
41.716171 -2.5660868 6.6196818 5 12
12.522273 -0.77247638 -1.0976394 18 5
41.583176 -2.5651908 8.0983152 4 13
19.025471 -1.1769801 -0.99898887 8 6
31.563473 -1.9581535 7.3010116 3 14
23.900145 -1.4869189 -0.41798514 1 7
29.349581 -1.8310914 7.8794875 2 15
4.5210528 -0.28760946 -1.2138613 19 0
36.705791 -2.3414929 0.64200425 18 8
5.1944695 -0.33226982 -1.2016885 23 1
31.15947 -1.9931489 1.6363361 1 9
6.1323843 -0.39333925 -1.1944643 28 2
31.734961 -2.0410838 2.7821856 8 10
7.4317317 -0.47928604 -1.1795161 18 3
41.988316 -2.7152624 5.1662855 6 11
9.3202868 -0.60434943 -1.1467906 36 4
41.768543 -2.7083709 6.6293807 21 12
12.54549 -0.81567812 -1.0999055 18 5
33.706238 -2.1974075 6.5657377 3 13
18.917608 -1.2366097 -0.99354589 8 6
32.342052 -2.1198101 7.4827714 3 14
23.871138 -1.5645971 -0.41756627 1 7
70.179604 -4.6121154 18.845133 45 15
4.5200214 -0.3033891 -1.2138613 16 0
36.741722 -2.4661472 0.64277214 23 8
5.1913943 -0.34936264 -1.2012386 23 1
32.144699 -2.1688614 1.6884627 1 9
6.1368508 -0.41514039 -1.1956092 29 2
31.98208 -2.1691041 2.8044975 2 10
7.4419265 -0.50472993 -1.1813933 17 3
30.733694 -2.089824 3.7823372 2 11
9.3182316 -0.63525331 -1.1467906 36 4
42.562912 -2.9091113 6.757031 11 12
12.566419 -0.86109942 -1.1019973 18 5
41.455067 -2.840661 8.0769453 4 13
19.013035 -1.3061805 -0.99877954 8 6
70.552635 -4.8592825 16.326946 36 14
23.765783 -1.6410258 -0.41582102 1 7
33.07143 -2.2893796 8.8826704 3 15
4.5228453 -0.31864795 -1.2148967 19 0
36.754829 -2.5959346 0.64315605 21 8
5.1998625 -0.36816996 -1.2034881 25 1
36.733051 -2.6072826 1.9299409 21 9
6.1236901 -0.43465465 -1.1933196 29 2
36.398586 -2.5899274 3.1925147 3 10
7.4401193 -0.53070402 -1.1813933 18 3
31.967695 -2.2858646 3.9351614 21 11
9.3238764 -0.66834372 -1.1477655 38 4
43.705124 -3.1404896 6.9400597 5 12
12.565481 -0.90290928 -1.1021715 18 5
41.542805 -2.9924014 8.0960255 19 13
19.008358 -1.3725405 -0.99877954 6 6
70.55275 -5.1067944 16.330997 36 14
23.803787 -1.7271575 -0.41658893 1 7
31.772308 -2.3109124 8.5358534 3 15
4.513999 -0.33386374 -1.2128261 19 0
36.773464 -2.7262866 0.64364475 2 8
5.2063193 -0.38689634 -1.2052878 23 1
36.735672 -2.7363787 1.9305689 16 9
6.1299667 -0.45661098 -1.1948459 29 2
36.417141 -2.7190433 3.1949551 3 10
7.4421611 -0.55696642 -1.182019 18 3
32.351467 -2.4268408 3.9834216 17 11
9.3353434 -0.70192796 -1.1494718 34 4
42.921738 -3.2348354 6.8174148 5 12
12.5702 -0.94736439 -1.1028687 17 5
41.48904 -3.134141 8.0876303 4 13
19.029341 -1.4408438 -1.0001402 6 6
70.571404 -5.3558393 16.339544 36 14
23.753748 -1.8069007 -0.41582102 1 7
31.444288 -2.3974252 8.4499245 3 15
4.5128059 -0.34961846 -1.2128261 16 0
24.693899 -1.9174343 0.43233103 1 8
5.1991086 -0.40461382 -1.203938 23 1
40.578892 -3.1651247 2.1331091 2 9
6.1342072 -0.47846383 -1.1959908 27 2
36.379616 -2.8439724 3.1925147 3 10
7.4322944 -0.58232391 -1.1807675 18 3
31.933147 -2.5075853 3.9329679 4 11
9.3466892 -0.73560047 -1.1511779 31 4
32.496731 -2.5632551 5.1629639 3 12
12.57476 -0.99186343 -1.1035661 18 5
70.889877 -5.604053 13.822586 20 13
19.012249 -1.5063132 -0.9995122 6 6
70.595009 -5.6055403 16.349442 36 14
23.775204 -1.8920268 -0.41630971 1 7
31.55127 -2.5163865 8.4809828 3 15
4.5192604 -0.36599275 -1.2148967 19 0
5.187953 -0.42196974 -1.2016885 25 1
40.569584 -3.3069143 2.1332138 5 9
6.1344571 -0.50003284 -1.1963725 30 2
31.412977 -2.5660586 2.7574334 2 10
7.4439979 -0.60939205 -1.1829575 16 3
71.315048 -5.8506341 8.7858057 15 11
9.3420858 -0.76805931 -1.1509341 33 4
29.884958 -2.4622421 4.749351 2 12
12.597036 -1.0378784 -1.1058321 18 5
70.912926 -5.8550243 13.830981 20 13
19.012846 -1.5731633 -0.99982619 5 6
32.071434 -2.6592944 7.4296832 3 14
23.760483 -1.9743438 -0.41617009 1 7
31.467211 -2.6202536 8.4607954 3 15
4.5256553 -0.38241631 -1.2169672 16 0
33.769993 -2.8594887 0.59156674 2 8
5.1980982 -0.44106504 -1.2043879 23 1
33.718395 -2.8610475 1.7734563 21 9
6.1404991 -0.52210832 -1.197899 29 2
31.197367 -2.6581035 2.739305 2 10
7.4457617 -0.63570893 -1.1835834 17 3
29.944906 -2.5619192 3.6902039 2 11
9.3452816 -0.80117327 -1.1516654 34 4
71.133148 -6.0982618 11.307711 19 12
12.607231 -1.0830375 -1.1070522 16 5
70.927261 -6.1055522 13.837851 20 13
19.090815 -1.6467301 -1.0042225 6 6
70.596878 -6.1019387 16.359341 36 14
23.713961 -2.0496817 -0.415472 1 7
70.261147 -6.0852752 18.896896 46 15
4.5204444 -0.39787272 -1.215932 16 0
33.754349 -2.9709325 0.59146208 16 8
5.1966071 -0.45830014 -1.2043879 23 1
31.097971 -2.7480679 1.6361268 1 9
6.1229939 -0.54215419 -1.1948459 30 2
33.656738 -2.9860215 2.9561486 65 10
7.4436131 -0.66039646 -1.1835834 17 3
33.556675 -2.9830468 4.1364894 47 11
9.352459 -0.83303946 -1.152884 33 4
32.208897 -2.8745675 5.121665 3 12
12.603374 -1.1270384 -1.1070522 15 5
33.309162 -2.9786229 6.5004811 27 13
19.144928 -1.7153755 -1.0073626 5 6
33.189976 -2.9796438 7.693326 16 14
23.726578 -2.1342378 -0.41582102 1 7
70.247177 -6.3311892 18.898968 46 15
4.5190997 -0.41286087 -1.215932 15 0
36.772648 -3.3659878 0.64455229 21 8
5.2066193 -0.47750473 -1.2070874 25 1
40.609612 -3.7243516 2.1371913 20 9
6.128983 -0.56317443 -1.1963725 30 2
71.517227 -6.5840969 6.2834058 18 10
7.4491301 -0.68710113 -1.1848348 15 3
30.077002 -2.7795699 3.7087281 2 11
9.3514729 -0.86586374 -1.1531279 34 4
71.208015 -6.5932326 11.326483 19 12
12.599567 -1.1688265 -1.1070522 11 5
32.438435 -3.0149329 6.3325691 20 13
19.114958 -1.7799711 -1.0061065 5 6
31.823095 -2.968946 7.3788447 3 14
23.71937 -2.2129064 -0.41582102 1 7
32.931686 -3.0781701 8.8624821 33 15
4.5099378 -0.427903 -1.2138613 15 0
24.884438 -2.3610361 0.43631017 1 8
5.1972475 -0.49403027 -1.2052878 22 1
40.592384 -3.8657041 2.136982 23 9
6.132843 -0.58512449 -1.1975174 27 2
71.537445 -6.8378696 6.2872405 18 10
7.4428778 -0.71142364 -1.184209 16 3
71.394791 -6.8368092 8.8062792 15 11
9.362381 -0.89819652 -1.154834 33 4
71.19635 -6.8428879 11.328359 19 12
12.605328 -1.213755 -1.1079237 10 5
30.890293 -2.9743969 6.0322361 2 13
19.069189 -1.8395132 -1.0040131 4 6
70.632355 -6.8260074 16.382736 37 14
23.675674 -2.2922204 -0.41519275 1 7
32.199677 -3.1231661 8.6683674 3 15
4.5200295 -0.44398928 -1.2169672 19 0
25.644217 -2.5234754 0.44978341 1 8
5.1896734 -0.51159549 -1.203938 23 1
40.606468 -4.0101223 2.1384473 20 9
6.1445451 -0.60680914 -1.2001886 29 2
71.53817 -7.0774131 6.2893324 18 10
7.4403486 -0.73739982 -1.184209 17 3
71.378387 -7.0867667 8.8072548 30 11
9.3631401 -0.93126476 -1.1553215 36 4
71.191689 -7.093327 11.331489 19 12
12.636919 -1.2591047 -1.1110613 10 5
70.966515 -7.0833998 13.863038 21 13
19.001045 -1.8999059 -1.0007683 4 6
70.639122 -7.0756259 16.389933 37 14
23.703342 -2.3784435 -0.41582102 1 7
70.308968 -7.0673451 18.934168 46 15
4.5261397 -0.46054664 -1.2190377 19 0
24.891222 -2.5371366 0.43672904 1 8
5.1936722 -0.53030157 -1.2052878 23 1
40.604149 -4.15306 2.1390755 25 9
6.1423893 -0.62825382 -1.2001886 29 2
71.584381 -7.3343945 6.2956076 18 10
7.4534507 -0.76498044 -1.186712 17 3
71.374931 -7.3381128 8.8099356 15 11
9.3578577 -0.96373928 -1.1550778 35 4
71.209724 -7.3462481 11.338371 19 12
12.658211 -1.305866 -1.1133274 10 5
70.929634 -7.329865 13.860748 20 13
19.022112 -1.9690995 -1.0022337 4 6
70.648888 -7.3257775 16.398031 37 14
23.706831 -2.4624085 -0.41603047 1 7
32.073334 -3.3370888 8.6404152 3 15
4.5206623 -0.4759385 -1.2180026 19 0
24.864313 -2.6221201 0.43641487 4 8
5.2072926 -0.55006528 -1.208887 25 1
26.16781 -2.7688196 1.3790525 15 9
6.1401587 -0.64969105 -1.2001886 29 2
26.135229 -2.7699845 2.2993429 16 10
7.4585924 -0.79182744 -1.1879635 16 3
26.060259 -2.7712379 3.2178385 16 11
9.3583841 -0.99681884 -1.1555651 34 4
25.969067 -2.7707086 4.1364408 24 12
12.707067 -1.3557507 -1.1180339 10 5
25.869738 -2.7646773 5.0572019 34 13
19.066755 -2.0410142 -1.0049552 5 6
25.727905 -2.7586033 5.9738002 52 14
23.662304 -2.5413024 -0.4154022 1 7
25.598099 -2.7537236 6.8985629 85 15
4.5074506 -0.49046186 -1.2148967 19 0
24.821217 -2.7052135 0.4358215 1 8
5.2111526 -0.56887323 -1.2102367 26 1
26.092466 -2.8529813 1.3755983 55 9
6.1456599 -0.67197376 -1.2017151 30 2
26.050142 -2.8529546 2.2927189 62 10
7.4557829 -0.81785792 -1.1879635 15 3
26.01688 -2.8585026 3.2136948 66 11
9.3706322 -1.0312167 -1.157515 35 4
25.925858 -2.8576612 4.1311216 68 12
12.757709 -1.4062103 -1.1229146 10 5
25.822853 -2.8508694 5.0499511 55 13
18.398457 -2.0344586 -0.97009939 1 6
25.704559 -2.8468919 5.9706511 63 14
23.677135 -2.6265295 -0.41582102 4 7
25.572968 -2.8413539 6.8944216 94 15
4.5174065 -0.50590998 -1.2180026 19 0
24.768875 -2.7782745 0.43505359 1 8
5.2035298 -0.584589 -1.208887 25 1
26.077421 -2.9342692 1.3752844 70 9
6.1474209 -0.69171667 -1.2024784 30 2
26.048969 -2.9356716 2.2934163 58 10
7.4531765 -0.84127688 -1.1879635 16 3
26.001854 -2.9395537 3.2129636 79 11
9.3831272 -1.0624372 -1.1594651 35 4
25.930492 -2.9406538 4.1333117 52 12
12.765105 -1.4476299 -1.1239605 10 5
25.831327 -2.9339743 5.0533857 40 13
18.774975 -2.1358187 -0.99030107 4 6
25.749702 -2.9338078 5.9832482 22 14
23.672741 -2.7013535 -0.41589087 2 7
25.61574 -2.927603 6.9083982 15 15
4.5213704 -0.52234071 -1.2195554 21 0
24.826563 -2.8725314 0.43624035 2 8
5.1937146 -0.60185188 -1.2070874 25 1
26.11265 -3.0305741 1.3776919 40 9
6.1527696 -0.71407628 -1.2040049 29 2
26.101894 -3.0339427 2.2989943 12 10
7.4501944 -0.86728817 -1.1879635 16 3
9.3754168 -1.0947232 -1.1589775 34 4
12.771848 -1.4935682 -1.1250063 10 5
71.006569 -8.3162279 13.89662 21 13
18.678141 -2.1908724 -0.98559082 4 6
23.643309 -2.7816341 -0.4155418 2 7
33.52142 -3.9497252 9.0441723 3 15
4.5214376 -0.53834844 -1.220073 19 0
24.973253 -2.97788 0.43899783 4 8
5.1993222 -0.620902 -1.208887 25 1
40.634266 -4.8597293 2.1447277 34 9
6.140492 -0.73438334 -1.2020967 27 2
71.646286 -8.5813522 6.3130393 18 10
7.4510446 -0.89375943 -1.1885892 17 3
32.662125 -3.9236338 4.039238 2 11
9.3813934 -1.1286285 -1.1601963 31 4
71.273705 -8.587203 11.370284 19 12
12.715126 -1.5319448 -1.1204742 10 5
71.047279 -8.5725021 13.910357 21 13
18.714003 -2.2613289 -0.98789364 5 6
23.641394 -2.8651097 -0.41568142 1 7
70.390152 -8.5430765 18.99939 47 15
4.5118613 -0.55318755 -1.2180026 20 0
25.038128 -3.0742958 0.44032422 3 8
5.1971231 -0.63904721 -1.208887 25 1
40.650757 -5.0056896 2.1465073 34 9
6.1320453 -0.7550934 -1.2009518 29 2
71.647537 -8.8352928 6.3158278 18 10
7.4557214 -0.92073143 -1.1898407 17 3
9.3892164 -1.1628327 -1.1616586 31 4
71.274658 -8.8398323 11.37529 19 12
12.634566 -1.5670007 -1.1138504 11 5
71.032509 -8.8223886 13.913412 21 13
18.559326 -2.3083968 -0.9801479 5 6
23.68681 -2.9545465 -0.41665876 2 7
33.493031 -4.1836505 9.0441723 3 15
4.5060692 -0.56844997 -1.2169672 19 0
25.100649 -3.170949 0.4416157 12 8
5.2122607 -0.65938592 -1.212936 26 1
40.589443 -5.1420341 2.1442044 34 9
6.1371641 -0.7774806 -1.2024784 30 2
71.624168 -9.08634 6.3165255 18 10
7.4524622 -0.94675112 -1.1898407 15 3
32.681198 -4.1575732 4.0450873 2 11
9.4028234 -1.197858 -1.1638523 35 4
71.274719 -9.0925732 11.380296 19 12
12.542059 -1.6000004 -1.1061807 10 5
71.06749 -9.078742 13.926386 21 13
18.612572 -2.3810236 -0.98339272 5 6
70.753494 -9.0637312 16.468216 37 14
23.727922 -3.0438263 -0.41756627 4 7
70.347954 -9.0367422 19.004564 47 15
4.515552 -0.58566648 -1.220073 19 0
25.115208 -3.2618954 0.44206947 6 8
5.2002654 -0.67631948 -1.2106866 25 1
40.666309 -5.2960668 2.1492286 31 9
6.1421995 -0.79991275 -1.2040049 30 2
71.631531 -9.3414526 6.3200111 18 10
7.4491119 -0.97275937 -1.1898407 16 3
71.489929 -9.3483658 8.8525906 15 11
9.4123621 -1.2324766 -1.1655585 31 4
71.289558 -9.347476 11.387805 19 12
12.500838 -1.6391081 -1.103043 10 5
71.023697 -9.3252268 13.924097 21 13
18.408104 -2.4202044 -0.97303021 6 6
32.230766 -4.2432613 7.5052671 3 14
23.754822 -3.1315992 -0.41822946 8 7
70.415573 -9.2953939 19.031483 47 15
4.5096502 -0.60091478 -1.2190377 18 0
25.145292 -3.3550982 0.44280246 1 8
5.1843514 -0.69266111 -1.2075372 23 1
40.661434 -5.4398403 2.1499612 25 9
6.1471534 -0.82238942 -1.2055314 29 2
71.669579 -9.6009598 6.3262868 18 10
7.4535017 -0.99980611 -1.1910921 17 3
71.472603 -9.5999699 8.8545399 15 11
9.4001341 -1.2642661 -1.1645836 31 4
71.295654 -9.6015387 11.394062 19 12
12.412109 -1.6715655 -1.095722 10 5
33.038979 -4.4553018 6.4802556 3 13
18.326309 -2.4745574 -0.9691574 7 6
70.823685 -9.5757389 16.49971 38 14
23.799231 -3.222012 -0.4192068 4 7
70.401848 -9.5437279 19.036659 47 15
4.5190101 -0.61822385 -1.2221435 18 0
25.157202 -3.4461081 0.44322133 3 8
5.1915555 -0.71207774 -1.2097868 25 1
40.661987 -5.5844598 2.1510081 25 9
6.1403556 -0.84330779 -1.2047681 29 2
71.675102 -9.8565044 6.3297729 18 10
7.4538808 -1.0263565 -1.1917179 17 3
71.485847 -9.8559046 8.8603897 31 11
9.3917303 -1.296528 -1.164096 33 4
71.296921 -9.8552189 11.399693 19 12
12.212784 -1.6881466 -1.0786394 10 5
71.022972 -9.8299837 13.937071 21 13
18.337343 -2.5412545 -0.970204 8 6
70.778244 -9.8212929 16.497011 38 14
23.787836 -3.3050671 -0.4192068 2 7
33.766205 -4.6974621 9.1347599 3 15
4.5168242 -0.63399434 -1.2221435 18 0
25.212347 -3.5433643 0.44440806 1 8
5.1967568 -0.73128158 -1.2115864 25 1
36.837105 -5.1902304 1.9496193 16 9
6.1373744 -0.86473644 -1.2047681 30 2
71.667885 -10.110533 6.3322134 18 10
7.4717679 -1.0554082 -1.1951594 17 3
71.506042 -10.11316 8.8672142 15 11
9.4009056 -1.3312517 -1.1658022 35 4
71.293381 -10.108468 11.4047 19 12
12.198926 -1.7296481 -1.0779423 10 5
71.073761 -10.089984 13.953863 21 13
18.304632 -2.6018755 -0.96894795 11 6
70.797554 -10.075982 16.509609 38 14
23.738543 -3.3827214 -0.41854361 1 7
33.720913 -4.8112059 9.1269951 3 15
4.4954619 -0.64700508 -1.2169672 18 0
25.207743 -3.6324914 0.44454771 1 8
5.1980305 -0.74997371 -1.2124861 23 1
36.846436 -5.322782 1.9510847 21 9
6.1401472 -0.88699669 -1.2059129 30 2
33.669689 -4.8698735 2.9763687 3 10
7.464128 -1.080917 -1.1945337 17 3
71.537102 -10.372387 8.8755016 15 11
9.4020958 -1.3649147 -1.1665335 28 4
71.320213 -10.366359 11.414711 19 12
12.472792 -1.8129143 -1.1026944 20 5
71.076965 -10.343671 13.961495 21 13
18.188713 -2.6502047 -0.96329564 11 6
70.835228 -10.333741 16.526703 38 14
23.764185 -3.4710555 -0.4192068 4 7
33.669506 -4.9238524 9.1176777 7 15
4.504643 -0.66438442 -1.220073 21 0
25.19491 -3.7204604 0.44454771 1 8
5.2030921 -0.76925367 -1.2142857 25 1
40.683334 -6.0148478 2.1552997 23 9
6.1389561 -0.90871197 -1.2062945 29 2
33.644604 -4.9862041 2.9756713 3 10
7.4544482 -1.1060953 -1.1935952 15 3
71.535805 -10.627285 8.8798885 15 11
9.4092989 -1.3978357 -1.1679959 23 4
71.359695 -10.613852 11.4266 19 12
12.476241 -1.857909 -1.1035661 22 5
32.864811 -4.899951 6.4588852 3 13
18.21096 -2.7183967 -0.96497047 8 6
70.85453 -10.576638 16.539301 38 14
23.788143 -3.5551617 -0.41983509 2 7
33.742794 -5.0489149 9.1420069 3 15
4.5062361 -0.67989528 -1.2211083 19 0
25.182432 -3.8039894 0.44454771 1 8
5.1850977 -0.7841723 -1.2106866 25 1
40.690811 -6.1539068 2.156765 23 9
6.1436734 -0.93024009 -1.207821 30 2
33.659401 -5.1025248 2.9784601 3 10
7.4546447 -1.1314019 -1.1942208 17 3
31.05563 -4.7189012 3.8569212 2 11
9.4163876 -1.4308195 -1.1694584 22 4
71.355347 -10.855184 11.431606 19 12
12.470011 -1.8992714 -1.1035661 25 5
31.858564 -4.857975 6.2642598 2 13
18.229486 -2.7829912 -0.96643591 8 6
70.853752 -10.816835 16.5474 38 14
23.82169 -3.6409755 -0.42063791 1 7
32.455963 -4.9664598 8.7977772 3 15
4.5077753 -0.69542378 -1.2221435 18 0
25.145966 -3.8838134 0.44412884 1 8
5.1901722 -0.80255359 -1.2124861 25 1
40.694736 -6.2998781 2.1581256 20 9
6.1347346 -0.94970709 -1.2066761 30 2
71.724426 -11.116346 6.3499928 19 10
7.462564 -1.1579335 -1.1960981 15 3
71.60498 -11.123431 8.897438 15 11
9.466258 -1.4722221 -1.176283 15 4
71.352158 -11.109664 11.437239 19 12
12.406553 -1.9317235 -1.098511 28 5
71.104401 -11.083798 13.988209 21 13
18.1057 -2.8255649 -0.96036488 8 6
70.834816 -11.067104 16.551899 38 14
23.757467 -3.7160718 -0.41973037 1 7
32.438427 -5.0797224 8.7977772 3 15
4.5015044 -0.71055233 -1.2211083 16 0
25.155956 -3.975311 0.44454771 1 8
5.1988878 -0.8224929 -1.2151856 23 1
40.629101 -6.4350181 2.155823 25 9
6.1216869 -0.96957999 -1.2047681 28 2
71.700928 -11.36914 6.351387 19 10
7.4740839 -1.1864531 -1.198601 15 3
71.604927 -11.379542 8.9023123 15 11
9.7786512 -1.5557849 -1.2157687 19 4
71.359764 -11.36612 11.444747 19 12
12.374156 -1.9709448 -1.0962449 23 5
31.710371 -5.0564747 6.241744 8 13
18.028671 -2.8780437 -0.95680606 10 6
70.838081 -11.321062 16.561796 38 14
23.693012 -3.7907643 -0.41882285 4 7
70.533096 -11.29757 19.140186 48 15
4.4989963 -0.7262612 -1.2211083 15 0
25.141928 -4.0630975 0.44454771 1 8
5.1998324 -0.84125781 -1.2160853 25 1
40.702995 -6.5924473 2.1609519 8 9
6.1357064 -0.99376768 -1.2082026 30 2
71.755203 -11.63466 6.3597541 19 10
7.4815965 -1.2144345 -1.2004782 15 3
32.61993 -5.3008046 4.0577621 8 11
9.849576 -1.6023406 -1.2252746 16 4
71.39373 -11.627208 11.456635 19 12
12.321971 -2.0067606 -1.0922357 30 5
31.737097 -5.1744008 6.2505217 17 13
17.75832 -2.8984895 -0.94298941 11 6
70.863525 -11.578949 16.577093 38 14
23.624376 -3.8644063 -0.41784552 1 7
32.402176 -5.3060598 8.7977772 3 15
4.5002456 -0.74259013 -1.2221435 16 0
25.119699 -4.1495314 0.44440806 1 8
5.1968641 -0.85940343 -1.2160853 25 1
31.617683 -5.2342739 1.6795658 5 9
6.1341372 -1.0154998 -1.2085842 29 2
32.257122 -5.3459158 2.8606257 2 10
7.4617219 -1.2379562 -1.1979753 16 3
31.606426 -5.249414 3.9339428 2 11
9.9105015 -1.647782 -1.2335616 19 4
71.407272 -11.885428 11.465396 19 12
12.30703 -2.0484512 -1.0915384 32 5
31.641378 -5.2722445 6.2352567 2 13
17.822954 -2.9729471 -0.94696695 11 6
70.903397 -11.839718 16.595989 38 14
23.003267 -3.8452995 -0.40709481 1 7
70.505852 -11.798634 19.15468 48 15
4.4976258 -0.7582944 -1.2221435 19 0
25.183931 -4.2505016 0.44580427 1 8
5.184226 -0.87591553 -1.213836 26 1
32.097454 -5.4288774 1.7060478 6 9
6.1363626 -1.0378879 -1.2097291 30 2
32.043785 -5.4255533 2.8433688 2 10
7.4651456 -1.2653153 -1.1992267 16 3
31.429382 -5.3328104 3.9141998 10 11
9.8890324 -1.6797067 -1.2316117 11 4
32.860859 -5.5874991 5.2793508 3 12
12.262486 -2.0850527 -1.0882267 35 5
31.748583 -5.4040751 6.2600622 2 13
17.800655 -3.0331299 -0.94633883 16 6
70.907753 -12.09501 16.606787 38 14
22.989704 -3.9255724 -0.40709481 1 7
32.242474 -5.5113068 8.7646484 3 15
4.5082784 -0.7762841 -1.225767 15 0
25.259592 -4.3540092 0.4474099 1 8
5.1849771 -0.89466912 -1.2147356 23 1
40.736046 -7.0363364 2.1664996 20 9
6.1268983 -1.0582991 -1.2085842 29 2
31.575064 -5.4596353 2.8034515 2 10
7.4684687 -1.2927134 -1.2004782 15 3
31.361677 -5.4340148 3.9081063 17 11
9.8322573 -1.7053953 -1.2252746 19 4
71.408203 -12.398521 11.479162 19 12
12.231576 -2.123754 -1.0861349 27 5
31.731459 -5.5152011 6.2604432 20 13
17.786022 -3.0945623 -0.9461295 23 6
31.320253 -5.4549942 7.3397031 3 14
22.936462 -3.9989285 -0.40639675 1 7
70.558777 -12.314478 19.19195 49 15
4.5036387 -0.79168171 -1.2252494 19 0
31.74338 -5.5857897 0.56259573 8 8
5.1875801 -0.9137767 -1.2160853 23 1
36.91032 -6.5016427 1.9641687 7 9
6.1154332 -1.0783159 -1.2070577 29 2
71.770203 -12.667938 6.3761396 19 10
7.4794731 -1.321525 -1.2029812 15 3
31.37575 -5.5493317 3.91225 6 11
9.8030891 -1.733842 -1.2223496 19 4
71.436714 -12.64765 11.490426 19 12
12.17112 -2.1570499 -1.0814284 23 5
71.146645 -12.621908 14.04545 21 13
17.851805 -3.1702478 -0.9502117 20 6
70.919716 -12.594417 16.629282 39 14
22.686817 -4.0329676 -0.40220818 1 7
70.517555 -12.548392 19.19195 49 15
4.4895792 -0.8045674 -1.2221435 16 0
32.120308 -5.7619939 0.56961161 72 8
5.1998658 -0.93372977 -1.2196846 23 1
32.044781 -5.7542186 1.706257 52 9
6.1137562 -1.0989367 -1.2074393 26 2
31.997984 -5.7573457 2.8444147 86 10
7.4711614 -1.3456203 -1.2023554 15 3
31.904182 -5.751966 3.9804969 25 11
9.7503986 -1.7578875 -1.2164999 20 4
31.758696 -5.7314596 5.11134 34 12
12.161938 -2.1970446 -1.0812541 25 5
31.635223 -5.7205806 6.2489948 23 13
17.833334 -3.2280064 -0.94979304 18 6
31.496239 -5.7011251 7.3896422 37 14
22.358492 -4.0511341 -0.3966234 1 7
31.297337 -5.6764054 8.5229111 62 15
4.4906874 -0.82014513 -1.2231789 18 0
32.085285 -5.8656006 0.56933242 20 8
5.1890731 -0.94956481 -1.217885 25 1
32.053967 -5.8714385 1.707827 16 9
6.1274586 -1.1223882 -1.210874 29 2
7.4627724 -1.3696749 -1.2017297 16 3
31.882978 -5.8573742 3.980253 17 11
9.7149191 -1.7865269 -1.2128438 18 4
31.754044 -5.8451452 5.1138434 27 12
12.203572 -2.2463801 -1.0856119 22 5
31.569742 -5.8169169 6.2398357 23 13
17.869671 -3.2958202 -0.95230514 22 6
31.502972 -5.8159852 7.3959408 33 14
22.344215 -4.1291552 -0.3966234 1 7
32.665958 -6.0424843 8.9013052 3 15
4.4953938 -0.83723038 -1.2252494 20 0
36.914314 -6.8816557 0.6554426 21 8
5.1780639 -0.96624237 -1.2160853 25 1
40.762135 -7.6136994 2.1731985 12 9
6.1235032 -1.1437702 -1.210874 29 2
32.122562 -6.0057716 2.8590569 2 10
7.4657125 -1.3971699 -1.2029812 17 3
30.99798 -5.8067136 3.872277 6 11
9.6266766 -1.8050618 -1.2026067 15 4
12.205447 -2.2908027 -1.0864835 18 5
30.70027 -5.7675853 6.0719242 2 13
17.848242 -3.3563313 -0.95178181 16 6
22.207827 -4.1841707 -0.39445931 1 7
32.680733 -6.1632743 8.9111395 3 15
4.4962401 -0.85363781 -1.2262847 19 0
36.919533 -7.0160685 0.65596616 5 8
5.1804032 -0.98540384 -1.2174351 22 1
40.723534 -7.7536974 2.1725705 21 9
6.1079016 -1.162935 -1.2085842 28 2
32.158161 -6.1286812 2.8641121 2 10
7.4704914 -1.4250726 -1.2045455 17 3
30.854679 -5.8914261 3.8569212 2 11
9.5208788 -1.8196493 -1.1901761 14 4
31.431135 -6.0128675 5.0684772 2 12
12.169981 -2.3281527 -1.0840431 13 5
89.444458 -17.127167 17.702114 50 13
17.750111 -3.4020708 -0.94717628 26 6
21.973137 -4.219429 -0.39054993 1 7
32.729218 -6.2908063 8.9302931 13 15
4.4932327 -0.86932737 -1.2262847 19 0
36.936047 -7.1528835 0.65669918 24 8
5.1864977 -1.005335 -1.2196846 23 1
32.04171 -6.2166705 1.7105486 4 9
6.1095872 -1.1853703 -1.2097291 30 2
7.4732275 -1.4526484 -1.205797 18 3
31.948498 -6.2159462 3.9963396 2 11
9.4111986 -1.8327612 -1.177258 14 4
12.152001 -2.3687139 -1.0831715 10 5
31.225767 -6.0923009 6.1841197 2 13
17.775372 -3.4712832 -0.94916505 21 6
30.325329 -5.9276099 7.1336479 3 14
21.907249 -4.2861209 -0.38964242 1 7
32.968685 -6.4562492 9.0017271 3 15
4.4789529 -0.88198322 -1.2231789 18 0
36.908199 -7.2745543 0.65662932 22 8
5.1812234 -1.0221514 -1.2192347 23 1
36.888126 -7.2839756 1.9705535 20 9
6.1075492 -1.2060044 -1.2101108 29 2
7.4741831 -1.4785724 -1.2067356 17 3
9.3739138 -1.8577851 -1.1733581 15 4
12.155806 -2.4113243 -1.0842174 10 5
17.791189 -3.5356596 -0.95063043 18 6
33.650272 -6.6934557 7.9209766 4 14
21.747789 -4.3298497 -0.38705948 1 7
32.886471 -6.5534596 8.9851627 3 15
4.4834232 -0.89913183 -1.2252494 20 0
36.904148 -7.4076724 0.65701324 22 8
5.1833553 -1.0413824 -1.2205844 25 1
36.885971 -7.4174199 1.9718097 20 9
6.107151 -1.2280904 -1.210874 29 2
7.4689765 -1.5046532 -1.2067356 15 3
31.956041 -6.4434681 4.002677 2 11
9.3595886 -1.8889242 -1.1723832 22 4
31.460493 -6.3549771 5.0834951 2 12
12.143409 -2.4529521 -1.0838689 10 5
89.598183 -18.114988 17.768517 50 13
17.739584 -3.5898175 -0.94853693 18 6
33.468174 -6.7787676 7.8836346 12 14
21.697266 -4.3985863 -0.38643116 1 7
32.689209 -6.6328716 8.9375401 3 15
4.4878287 -0.91632223 -1.22732 20 0
36.927048 -7.5464578 0.65788597 19 8
5.1720519 -1.0579073 -1.2187848 25 1
36.877464 -7.5497355 1.9727516 20 9
6.1105204 -1.2509757 -1.2124004 29 2
7.4830298 -1.5346845 -1.2098643 10 3
31.933357 -6.5549765 4.002677 2 11
9.3529387 -1.9215838 -1.1723832 16 4
12.093355 -2.4890091 -1.0802083 10 5
17.711298 -3.6484945 -0.94769961 30 6
33.348881 -6.8758759 7.8611398 4 14
21.621069 -4.4617686 -0.38534915 7 7
32.841808 -6.7832799 8.9856806 3 15
4.4957881 -0.93512529 -1.2304258 19 0
22.843527 -4.7514606 0.40726936 1 8
5.1683278 -1.0759548 -1.2187848 25 1
36.884129 -7.6853423 1.9745311 17 9
6.0943632 -1.2709588 -1.2101108 30 2
7.5121603 -1.5693721 -1.2154959 10 3
31.84033 -6.6517916 3.9939027 2 11
9.3733768 -1.9599078 -1.1757956 18 4
11.96954 -2.5071087 -1.0699239 10 5
17.721262 -3.7183065 -0.9489556 20 6
33.359692 -7.0056691 7.8696876 4 14
21.552523 -4.5261164 -0.38440672 3 7
32.969173 -6.929667 9.027091 3 15
4.4849367 -0.94921279 -1.2283553 18 0
22.685106 -4.8053179 0.40475622 1 8
5.1681623 -1.0956988 -1.2196846 25 1
36.898693 -7.8295989 1.9768341 17 9
6.0860486 -1.2914094 -1.2093475 28 2
7.6380262 -1.6235126 -1.236771 9 3
9.3583632 -1.9925958 -1.1748205 15 4
11.919793 -2.540154 -1.0662633 12 5
17.776539 -3.7947369 -0.95261919 38 6
33.447472 -7.1460958 7.8962317 4 14
21.398907 -4.57581 -0.38196337 1 7
31.490854 -6.7395577 8.6290274 3 15
4.4740415 -0.96323597 -1.2262847 21 0
22.433615 -4.8339276 0.40056765 1 8
5.175736 -1.1161973 -1.2223841 23 1
36.902374 -7.9650927 1.9785086 10 9
6.0853419 -1.3134742 -1.2101108 30 2
7.7597432 -1.6777159 -1.2574203 10 3
9.3532906 -2.0256708 -1.1750643 12 4
11.916696 -2.5830126 -1.0667863 18 5
29.226427 -6.3403382 5.8131871 2 13
17.810026 -3.8669355 -0.95513123 31 6
28.493999 -6.1918612 6.731885 6 14
21.300734 -4.6326289 -0.3804974 4 7
31.406731 -6.8362913 8.612463 3 15
4.4782004 -0.98050022 -1.2283553 18 0
22.213457 -4.8676901 0.39693755 1 8
5.1680007 -1.1334223 -1.2214842 23 1
36.92453 -8.0981188 1.9811254 7 9
6.086473 -1.3359709 -1.2112557 27 2
7.8059306 -1.7162451 -1.2658678 10 3
9.3364706 -2.0561731 -1.1738456 19 4
11.858964 -2.6138723 -1.0624285 26 5
28.540783 -6.2959895 5.6811476 2 13
17.808123 -3.9316642 -0.95575935 20 6
33.179844 -7.3314958 7.844943 4 14
21.187624 -4.6816669 -0.37875214 1 7
31.553652 -6.9779449 8.65905 3 15
4.4804077 -0.99738538 -1.2299082 15 0
22.048847 -4.9083023 0.39428475 1 8
5.1508994 -1.1475873 -1.2183349 22 1
36.921379 -8.2326107 1.9824861 10 9
6.0971012 -1.360629 -1.2143085 26 2
34.314278 -7.6638618 3.0760748 3 10
7.8310432 -1.7490104 -1.2708738 9 3
33.999352 -7.5997548 4.2776146 2 11
9.3121653 -2.0832222 -1.171652 14 4
11.8556 -2.6565592 -1.0629514 18 5
32.537071 -7.2907867 6.4814005 3 13
17.78524 -3.9885108 -0.95523596 21 6
32.394775 -7.2707777 7.6649823 4 14
21.171154 -4.7555971 -0.37875214 1 7
31.280312 -7.0321145 8.5907221 3 15
4.4864969 -1.0143675 -1.2324963 20 0
21.918457 -4.9596405 0.39226031 1 8
5.1506629 -1.1664211 -1.2192347 22 1
32.79607 -7.4330282 1.762361 52 9
6.0925555 -1.3808402 -1.2143085 26 2
32.765335 -7.4320745 2.9394145 51 10
7.8403006 -1.7798336 -1.2733767 9 3
32.689205 -7.4268045 4.1160154 74 11
9.2738657 -2.1086729 -1.1677521 13 4
32.601753 -7.4189048 5.29562 65 12
11.829241 -2.6918802 -1.0613827 23 5
32.50568 -7.4030104 6.4802556 24 13
17.788734 -4.0545635 -0.95617801 10 6
32.352097 -7.3799114 7.6609325 60 14
21.107635 -4.8187871 -0.37791443 1 7
32.219833 -7.3615742 8.8557529 30 15
4.4753976 -1.0282917 -1.2304258 19 0
21.803568 -5.0137129 0.39051506 1 8
5.1541572 -1.1861415 -1.2210344 22 1
32.79134 -7.5523939 1.7635126 28 9
6.0781322 -1.3998955 -1.2124004 27 2
32.75861 -7.5508771 2.9411576 3 10
7.8128667 -1.8023061 -1.2699351 9 3
9.2722511 -2.1423724 -1.1684834 19 4
32.660339 -7.5522423 5.3093867 3 12
11.804244 -2.7295647 -1.0599881 22 5
28.719263 -6.6462049 5.7299943 5 13
17.78615 -4.1193376 -0.95680606 8 6
33.412033 -7.744493 7.9182768 4 14
21.154968 -4.9073491 -0.37906629 6 7
31.004637 -7.1978941 8.5286055 3 15
4.4680185 -1.0430292 -1.2293905 16 0
21.719728 -5.0743232 0.38932827 1 8
5.1575751 -1.2059002 -1.222834 22 1
33.861042 -7.9170995 1.8224429 14 9
6.0808554 -1.422893 -1.2139269 26 2
7.7815256 -1.8237075 -1.2658678 9 3
28.769341 -6.7477875 3.6282945 1 11
9.2917719 -2.1810763 -1.1718956 25 4
11.790765 -2.7698412 -1.0596396 30 5
33.198551 -7.8049912 6.6290865 3 13
17.773605 -4.1818547 -0.95691067 7 6
32.284611 -7.6020169 7.6573339 4 14
21.123007 -4.9738078 -0.37878701 6 7
29.451878 -6.9404221 8.1077662 2 15
4.4643507 -1.0586191 -1.2293905 18 0
21.718349 -5.150012 0.38960752 1 8
5.1459637 -1.2211968 -1.2210344 22 1
36.971478 -8.7805767 1.991488 5 9
6.0873117 -1.4468344 -1.2162166 26 2
7.7446871 -1.8421881 -1.260862 9 3
9.326972 -2.221998 -1.177258 41 4
11.79459 -2.8142188 -1.0608597 31 5
33.126656 -7.9041028 6.6199274 18 13
17.693592 -4.224999 -0.95335191 7 6
21.041336 -5.0321612 -0.37763515 1 7
29.376741 -7.0310445 8.0937891 2 15
4.4720845 -1.0761293 -1.2324963 21 0
21.665243 -5.2173638 0.38897923 1 8
5.1397748 -1.2386955 -1.2205844 23 1
36.954193 -8.9128551 1.9922208 5 9
6.0882063 -1.4683936 -1.2173615 26 2
7.7228489 -1.8655003 -1.2583591 9 3
32.604923 -7.881938 4.1186967 9 11
9.3268766 -2.2564087 -1.1782329 35 4
32.638439 -7.9020991 5.3187723 3 12
11.783257 -2.8528469 -1.0606854 27 5
32.495922 -7.8735986 6.4993362 3 13
17.661266 -4.2824998 -0.9524098 10 6
33.775555 -8.1961298 8.024004 4 14
20.96146 -5.0904775 -0.37651822 1 7
32.419376 -7.8790188 8.9396095 3 15
4.4758081 -1.0935675 -1.2345669 18 0
21.654671 -5.2948585 0.38911885 1 8
5.1392055 -1.2575556 -1.2214842 22 1
36.934502 -9.0446463 1.9928488 10 9
6.0754161 -1.4877685 -1.215835 25 2
7.6836748 -1.8844478 -1.2530402 12 3
90.031708 -22.097246 11.382597 48 11
9.3382215 -2.2936871 -1.1806704 44 4
29.94042 -7.3596129 4.8832588 2 12
11.759683 -2.8906312 -1.0594652 32 5
32.512089 -7.9977694 6.5081134 3 13
17.64621 -4.3441229 -0.9524098 8 6
33.657803 -8.2920685 8.0028582 4 14
20.858135 -5.1425538 -0.37498242 1 7
4.4644632 -1.1073239 -1.2324963 18 0
21.663227 -5.3771596 0.38960752 1 8
5.1328936 -1.2750174 -1.2210344 23 1
36.956635 -9.1800747 1.9956747 5 9
6.0606594 -1.5065986 -1.2139269 26 2
32.735401 -8.1436481 2.951268 3 10
7.6367955 -1.9012358 -1.24647 8 3
9.3282318 -2.3257895 -1.1804266 32 4
28.932581 -7.2137027 4.7227569 2 12
11.720524 -2.9244277 -1.0568506 27 5
28.139189 -7.0263219 5.6376429 2 13
15.038324 -3.7578402 -0.8123588 13 6
31.726786 -7.9339066 7.5502577 3 14
20.914682 -5.2301278 -0.37630877 1 7
32.14386 -8.0441647 8.8785286 3 15
4.4605703 -1.1229011 -1.2324963 20 0
22.106806 -5.5651526 0.39791486 1 8
5.1361961 -1.2939358 -1.222834 23 1
32.640472 -8.2290077 1.7641405 6 9
6.0553632 -1.5277451 -1.2139269 26 2
31.385443 -7.9242544 2.8320389 2 10
7.5691605 -1.9110756 -1.2364582 8 3
34.600613 -8.7424507 4.3819346 2 11
9.3031473 -2.3523304 -1.1782329 39 4
11.714107 -2.9663005 -1.0571991 20 5
28.226116 -7.1475482 5.6597767 2 13
14.739243 -3.7350767 -0.79686737 14 6
28.288864 -7.1739454 6.7377338 3 14
20.923435 -5.3099885 -0.37679744 1 7
26.726786 -6.7877393 7.3887668 2 15
4.4530787 -1.1367311 -1.231461 20 0
22.315866 -5.7006884 0.40203363 1 8
5.1354237 -1.312822 -1.2237337 22 1
31.740826 -8.1201391 1.7170383 2 9
6.0521655 -1.5483035 -1.2143085 26 2
29.189514 -7.4728756 2.6361127 2 10
7.5069489 -1.9232676 -1.2273849 11 3
31.591312 -8.0995169 4.0043831 2 11
9.2833414 -2.38183 -1.1767704 28 4
29.021189 -7.4513745 4.7455964 2 12
11.68298 -2.9996791 -1.0552818 30 5
28.083105 -7.2157407 5.6361165 2 13
14.64294 -3.7651165 -0.79236645 13 6
27.806934 -7.1551285 6.6288581 3 14
20.982235 -5.4029388 -0.37819365 1 7
26.682352 -6.8756881 7.3830724 30 15
4.4603052 -1.1551745 -1.2345669 19 0
22.373259 -5.7986183 0.40342984 1 8
5.1194925 -1.3278046 -1.2210344 22 1
26.985601 -7.0040808 1.4611154 37 9
6.0505252 -1.5704066 -1.2150718 26 2
26.95137 -7.0002179 2.4361773 48 10
7.4829841 -1.9449879 -1.2245692 8 3
26.92515 -7.0034409 3.415998 47 11
9.2231016 -2.4007189 -1.1701895 38 4
26.871227 -6.9994302 4.3979993 36 12
11.693645 -3.0459664 -1.0571991 23 5
26.790596 -6.9834208 5.381577 49 13
14.535011 -3.7915051 -0.78723752 7 6
26.695707 -6.9686394 6.3697143 54 14
21.01742 -5.4902992 -0.37917098 1 7
26.55913 -6.9428906 7.3556376 73 15
4.4581137 -1.1712276 -1.2350845 21 0
22.349016 -5.8756633 0.40336004 1 8
5.1185951 -1.3466583 -1.2219341 22 1
26.855993 -7.0655808 1.4553584 39 9
6.046905 -1.5920172 -1.2154534 26 2
26.903652 -7.0881619 2.4340856 59 10
7.4761491 -1.9710964 -1.2245692 8 3
26.873669 -7.0902948 3.4125855 75 11
9.2477207 -2.4399002 -1.1743331 25 4
26.819218 -7.080935 4.3933063 76 12
11.692573 -3.0893109 -1.0580707 26 5
26.747078 -7.071877 5.3777614 60 13
14.264889 -3.7742736 -0.7733162 6 6
26.632889 -7.0466595 6.3602662 63 14
20.96817 -5.5517764 -0.37861249 1 7
26.539694 -7.0319147 7.3566728 92 15
4.4486051 -1.1845137 -1.2335316 19 0
22.298492 -5.9415054 0.40280154 8 8
5.11975 -1.365131 -1.2232838 22 1
26.815046 -7.1499686 1.4544164 42 9
6.0321078 -1.6095299 -1.2135452 25 2
26.943521 -7.1943002 2.4398379 59 10
7.4371281 -1.9872085 -1.2192503 9 3
26.886446 -7.1891146 3.4172165 47 11
9.2242374 -2.4664509 -1.1723832 24 4
26.845203 -7.1831079 4.4014406 20 12
11.695736 -3.1316752 -1.0592909 22 5
26.770887 -7.1732378 5.3873014 20 13
13.870329 -3.7191384 -0.75259113 12 6
26.680901 -7.1541176 6.3773627 15 14
20.934193 -5.6171327 -0.37833327 1 7
26.568472 -7.1339126 7.3711667 2 15
4.4446526 -1.1992593 -1.2335316 19 0
22.176348 -5.9877896 0.40095159 8 8
5.1264825 -1.3851511 -1.2259833 22 1
26.824631 -7.2529106 1.4563005 42 9
6.0362134 -1.6320865 -1.2154534 26 2
27.119534 -7.3377266 2.4579663 15 10
7.361856 -1.9932748 -1.2079871 7 3
9.2155714 -2.4986348 -1.1723832 24 4
28.598684 -7.7593713 4.6933475 22 12
11.664136 -3.1647038 -1.0573735 16 5
28.819714 -7.8247414 5.8047915 2 13
13.701801 -3.722697 -0.74411267 11 6
32.778599 -8.911891 7.8422441 4 14
20.86429 -5.6765232 -0.37742576 1 7
31.867001 -8.675992 8.8495407 3 15
4.4329853 -1.2127275 -1.231461 19 0
21.970152 -6.0144749 0.39760074 2 8
5.117857 -1.4020076 -1.2250834 22 1
34.134098 -9.3572454 1.8548912 13 9
6.034266 -1.6541848 -1.2162166 23 2
33.588108 -9.2138748 3.0471389 19 10
7.2900858 -2.0011814 -1.1973495 7 3
27.323092 -7.5055146 3.4791265 1 11
9.1933947 -2.5271046 -1.1706771 21 4
29.853245 -8.2117434 4.9039083 2 12
11.599228 -3.190604 -1.0524927 21 5
28.057796 -7.7231364 5.656724 2 13
13.65599 -3.7614863 -0.74233329 13 6
27.624126 -7.6141391 6.6153607 3 14
20.828926 -5.7450657 -0.37714651 1 7
32.078613 -8.8539953 8.9168348 3 15
4.4324479 -1.2292267 -1.2324963 16 0
21.758265 -6.0381899 0.39414516 6 8
5.1035438 -1.4172567 -1.222834 18 1
29.205709 -8.1159296 1.5886058 40 9
6.0625038 -1.6846999 -1.2230858 17 2
28.893143 -8.0345049 2.6237364 2 10
7.2678318 -2.0223799 -1.1948466 7 3
27.350269 -7.6157541 3.4859512 1 11
9.2093773 -2.566107 -1.1738456 19 4
28.385885 -7.9148016 4.6673794 2 12
11.582263 -3.2294681 -1.0519698 26 5
28.204643 -7.8695717 5.6918325 2 13
13.617767 -3.8021491 -0.74097258 11 6
32.70245 -9.1368408 7.8390946 4 14
20.73171 -5.7961998 -0.3757503 2 7
29.878265 -8.3590279 8.3132687 3 15
4.4392891 -1.2478279 -1.2356021 16 0
21.661978 -6.0929871 0.39278385 7 8
5.1004415 -1.4355906 -1.2232838 22 1
33.810329 -9.5227594 1.840865 15 9
6.0962701 -1.7170287 -1.2310997 21 2
34.127037 -9.618391 3.1020472 13 10
7.24932 -2.0445197 -1.1929693 9 3
34.126698 -9.6311541 4.3539047 9 11
9.1659765 -2.5885272 -1.1694584 22 4
34.159725 -9.6533499 5.6222553 3 12
11.522987 -3.2563326 -1.047612 10 5
27.972969 -7.9102798 5.6506181 2 13
13.608256 -3.8507483 -0.74118191 11 6
27.424046 -7.7653928 6.5802679 3 14
20.613232 -5.8407288 -0.37397018 7 7
29.049713 -8.2366705 8.0906839 2 15
4.4237585 -1.2601407 -1.2324963 16 0
21.588654 -6.1537638 0.39184144 10 8
5.1103911 -1.4576621 -1.2268831 21 1
34.047462 -9.711525 1.8555192 4 9
6.1110063 -1.7442257 -1.2352976 19 2
34.784851 -9.9349861 3.1649737 3 10
7.2421398 -2.0698121 -1.1929693 9 3
27.321249 -7.8136039 3.4891195 1 11
9.1397076 -2.6155908 -1.1672646 29 4
29.402468 -8.4143629 4.8438373 2 12
11.532619 -3.3025692 -1.0495294 5 5
29.400293 -8.4248457 5.9448457 7 13
13.583213 -3.8949237 -0.74055386 11 6
27.636538 -7.9298701 6.6378555 3 14
20.53993 -5.8936105 -0.37299284 6 7
29.256199 -8.4001341 8.1559057 2 15
4.4156208 -1.2745036 -1.231461 15 0
21.468224 -6.196485 0.39002639 9 8
5.1148906 -1.4773042 -1.2291325 18 1
34.092022 -9.8530493 1.8598108 2 9
6.1520295 -1.7791821 -1.2448379 18 2
29.486841 -8.5332451 2.685617 2 10
7.2561083 -2.0998569 -1.1964109 8 3
28.208523 -8.1686449 3.6058705 1 11
9.1004772 -2.6370451 -1.1633649 24 4
29.511415 -8.5571041 4.8666768 2 12
11.413866 -3.3117146 -1.039768 6 5
28.050463 -8.1387959 5.677331 2 13
13.543369 -3.9321492 -0.73908848 10 6
29.133379 -8.4640274 7.004076 3 14
20.488506 -5.9563389 -0.37243435 7 7
4.4169331 -1.2907649 -1.233014 15 0
21.402319 -6.2584753 0.38922358 9 8
5.1059618 -1.4940552 -1.2282327 18 1
29.411135 -8.6115627 1.606086 1 9
6.1837788 -1.8106067 -1.2524703 17 2
29.292038 -8.582243 2.6704519 25 10
7.3207669 -2.146291 -1.2083 8 3
29.760832 -8.7308769 3.8081734 2 11
9.055028 -2.6581717 -1.1587338 23 4
34.312481 -10.079194 5.6641793 3 12
11.387529 -3.3450541 -1.0383735 5 5
27.931471 -8.2100849 5.6590133 2 13
13.473994 -3.9630566 -0.73605299 7 6
20.459919 -6.0255618 -0.37229472 7 7
28.93 -8.5255365 8.0813656 24 15
4.4179583 -1.3078202 -1.2345669 15 0
21.441698 -6.3513203 0.39034054 9 8
5.0895057 -1.5085466 -1.2255334 18 1
23.197964 -6.8803596 1.2681004 2 9
6.1962423 -1.8377638 -1.2562865 10 2
34.336895 -10.19061 3.1335976 3 10
7.3340602 -2.1780181 -1.2117414 9 3
29.218307 -8.6825981 3.7426078 6 11
9.0114431 -2.6795793 -1.1543465 28 4
11.236378 -3.3433046 -1.0256487 10 5
27.974144 -8.3288231 5.6735148 2 13
13.507931 -4.024322 -0.73866975 8 6
33.395023 -9.9554882 8.0451488 4 14
20.402351 -6.0860825 -0.37163153 5 7
28.933388 -8.6364145 8.0906839 2 15
4.4207678 -1.325453 -1.2366375 16 0
21.469196 -6.4410667 0.39124805 9 8
5.0842085 -1.5263029 -1.2255334 18 1
22.693687 -6.8170681 1.2418277 3 9
6.1991916 -1.8622055 -1.2581946 8 2
35.049072 -10.535233 3.2019277 3 10
7.3434377 -2.2087262 -1.2145573 8 3
34.124374 -10.270272 4.3755975 2 11
8.9830284 -2.7052948 -1.1519091 14 4
29.108114 -8.7716303 4.8150535 15 12
11.209379 -3.377908 -1.0242543 28 5
13.570285 -4.0945258 -0.74285662 8 6
28.699883 -8.6650047 6.9212942 3 14
20.402042 -6.1636243 -0.37201551 9 7
4.4161143 -1.3408762 -1.2366375 18 0
21.5212 -6.538641 0.39260933 10 8
5.0919008 -1.5480086 -1.2286826 22 1
22.541731 -6.8572974 1.2348148 8 9
6.1945319 -1.8844049 -1.2585762 9 2
33.327141 -10.144623 3.0478363 3 10
7.3130074 -2.2274396 -1.2108029 8 3
32.512268 -9.9089813 4.1732945 2 11
8.9298582 -2.723316 -1.1463031 25 4
33.929207 -10.353775 5.6185007 3 12
11.216576 -3.4228299 -1.0259974 8 5
33.176548 -10.130425 6.7428083 3 13
13.450855 -4.1097722 -0.73709965 7 6
20.374666 -6.2330489 -0.37191078 13 7
4.3984809 -1.3523092 -1.233014 15 0
21.547939 -6.6290116 0.39351684 23 8
5.0901914 -1.5669197 -1.2295824 22 1
22.387859 -6.8959599 1.2276969 10 9
6.1897926 -1.9065942 -1.2589579 17 2
29.239805 -9.0120993 2.6769013 2 10
7.2995248 -2.2512064 -1.2098643 7 3
28.926619 -8.9266291 3.7170153 2 11
8.9297819 -2.7573991 -1.1475219 31 4
11.204558 -3.4619625 -1.0259974 2 5
28.84948 -8.9193716 5.8696666 2 13
13.17121 -4.0746517 -0.72255027 8 6
29.178551 -9.0322695 7.0517654 3 14
20.318398 -6.2934804 -0.37128249 14 7
4.4066458 -1.3716736 -1.2366375 16 0
21.52467 -6.7041879 0.39351684 17 8
5.0865517 -1.5852582 -1.2300324 22 1
22.304544 -6.9556346 1.2244521 18 9
6.1999674 -1.9334493 -1.2623924 16 2
28.067003 -8.7580223 2.5723145 2 10
7.2784224 -2.2725515 -1.2076741 8 3
28.872543 -9.0204449 3.7140903 4 11
8.9144192 -2.7867761 -1.1467906 24 4
33.908882 -10.606904 5.6272612 3 12
11.198112 -3.5028369 -1.0265204 1 5
28.181139 -8.820631 5.7399163 2 13
13.139754 -4.1152306 -0.72160828 13 6
28.514593 -8.9359312 6.8987989 3 14
20.281044 -6.3595815 -0.37100327 16 7
28.448708 -8.9261913 7.9892268 2 15
4.3981457 -1.3858861 -1.2356021 19 0
21.49732 -6.778079 0.39344704 17 8
5.0791278 -1.6024176 -1.2295824 22 1
22.214691 -7.0085287 1.2207886 13 9
6.2100306 -1.9603987 -1.2658269 15 2
30.000717 -9.4764614 2.7525525 2 10
7.2760963 -2.2997303 -1.2086128 10 3
28.950657 -9.1558895 3.7282271 2 11
8.8781395 -2.8094914 -1.1433783 34 4
28.155743 -8.9098978 4.6773911 2 12
11.159224 -3.5334842 -1.02408 1 5
27.936821 -8.8513498 5.6964121 2 13
13.111981 -4.1568465 -0.72087556 17 6
28.018847 -8.8881016 6.7863235 3 14
20.261749 -6.4274054 -0.37103814 21 7
4.4080052 -1.4059265 -1.2397434 16 0
21.493776 -6.8554063 0.39379612 11 8
5.0737863 -1.6192516 -1.2295824 20 1
22.148235 -7.0726624 1.2184858 28 9
6.1825781 -1.9754906 -1.2616292 12 2
30.047159 -9.6066093 2.7598739 2 10
7.2533779 -2.3190334 -1.2061099 10 3
28.216797 -9.0268373 3.6375566 1 11
8.8574314 -2.8352864 -1.1419159 52 4
28.101894 -9.0008955 4.6736364 2 12
11.146822 -3.5724158 -1.02408 1 5
28.707497 -9.2003908 5.8597445 15 13
13.107635 -4.2033539 -0.72139889 13 6
28.408573 -9.1155262 6.888001 3 14
20.239189 -6.4980927 -0.37103814 18 7
4.3904486 -1.416384 -1.2361197 14 0
21.469717 -6.9303913 0.39379612 2 8
5.0718122 -1.6381507 -1.2304822 20 1
22.070198 -7.1327333 1.2155551 12 9
6.1255541 -1.9796807 -1.2513254 19 2
33.795231 -10.928591 3.107451 3 10
7.2283239 -2.3388653 -1.203294 12 3
33.68087 -10.904598 4.3468361 9 11
8.8625889 -2.8710811 -1.1438658 42 4
33.782833 -10.950639 5.6247582 3 12
11.028152 -3.5768809 -1.0143185 1 5
28.757376 -9.3271933 5.8765359 5 13
13.117578 -4.2570977 -0.7227596 8 6
28.558222 -9.2736187 6.9320917 3 14
20.223991 -6.5711732 -0.37117779 18 7
29.093836 -9.4587736 8.1973171 2 15
4.3742099 -1.4288673 -1.233014 15 0
21.422583 -6.9978418 0.39337724 8 8
5.0827341 -1.6612935 -1.2345314 18 1
22.04137 -7.208488 1.2153457 11 9
6.0828052 -1.9905175 -1.2440747 11 2
33.834473 -11.078422 3.1147721 3 10
7.2328434 -2.3696475 -1.2054842 12 3
28.530375 -9.3472137 3.6863041 2 11
8.8525124 -2.9020002 -1.1438658 45 4
33.947117 -11.134988 5.6585479 3 12
10.937985 -3.5898817 -1.0071718 8 5
28.640924 -9.4055796 5.8597445 2 13
13.168299 -4.3269696 -0.72642314 8 6
28.224138 -9.279624 6.8592072 3 14
20.229424 -6.6510954 -0.37170133 14 7
4.3820357 -1.4483711 -1.2366375 16 0
21.345531 -7.0593596 0.39243484 9 8
5.069211 -1.6774627 -1.2327318 18 1
22.046412 -7.2954216 1.2170205 11 9
6.0404086 -2.0000136 -1.236824 14 2
7.2170272 -2.3923945 -1.2042327 15 3
34.253895 -11.361563 4.4311695 4 11
8.830512 -2.9306746 -1.1424034 43 4
28.504801 -9.460187 4.7568598 2 12
10.866771 -3.6085749 -1.0017681 10 5
28.581835 -9.4968309 5.8544021 2 13
13.384336 -4.4497814 -0.73919314 7 6
20.219366 -6.7260876 -0.37194568 13 7
4.3842812 -1.4661093 -1.238708 16 0
21.295454 -7.1212263 0.39194614 9 8
5.0673161 -1.6955001 -1.2336316 11 1
22.017023 -7.3710661 1.2168112 23 9
6.0073285 -2.012356 -1.2314813 10 2
36.514389 -12.238807 3.3692665 3 10
7.1884518 -2.4094081 -1.2007911 12 3
34.200974 -11.47004 4.4292197 2 11
8.8038073 -2.9542582 -1.1402097 44 4
33.213127 -11.151645 5.5490437 3 12
10.784227 -3.6230087 -0.99531853 10 5
33.943474 -11.40346 6.9603305 3 13
13.388437 -4.500505 -0.74023986 13 6
20.237461 -6.8106585 -0.3727136 13 7
4.3830562 -1.4818776 -1.2397434 16 0
21.251524 -7.1891098 0.39159712 9 8
5.0835171 -1.7206756 -1.2390305 12 1
21.986782 -7.4421148 1.2164971 10 9
5.9615726 -2.0190406 -1.2234674 12 2
32.892101 -11.14616 3.0384235 3 10
7.2024469 -2.4420974 -1.2045455 15 3
34.217121 -11.608489 4.436532 2 11
8.7821636 -2.9811425 -1.1387473 38 4
33.11985 -11.242674 5.5396581 3 12
10.674055 -3.6254313 -0.98625439 11 5
28.423588 -9.6595745 5.8353209 2 13
13.423701 -4.5645728 -0.74306601 16 6
32.676571 -11.117647 7.9686656 4 14
20.282917 -6.900918 -0.37397018 38 7
4.3778567 -1.4971681 -1.2397434 15 0
21.195402 -7.2485418 0.39100373 11 8
5.1220341 -1.7526655 -1.2498281 11 1
21.989014 -7.528522 1.2180672 7 9
5.8913407 -2.0182056 -1.2104924 10 2
34.357021 -11.776436 3.1775239 3 10
7.1943088 -2.4659684 -1.2045455 14 3
34.234772 -11.741213 4.4438438 2 11
8.7853727 -3.0147588 -1.1404535 42 4
10.45783 -3.5927548 -0.96742868 10 5
28.391399 -9.7537766 5.8353209 2 13
13.421712 -4.6136065 -0.74379867 18 6
20.292738 -6.9833889 -0.37459844 22 7
4.3637381 -1.5085214 -1.2371551 14 0
21.17375 -7.323792 0.39107352 12 8
5.1324592 -1.77627 -1.2538772 12 1
22.085276 -7.6477127 1.2248708 22 9
5.860498 -2.0293794 -1.2055314 13 2
34.133286 -11.826382 3.1604414 3 10
7.1763253 -2.4878311 -1.2029812 10 3
28.73971 -9.9688721 3.7350519 2 11
8.746665 -3.0356443 -1.1367973 51 4
28.554533 -9.9158087 4.7875209 2 12
10.383748 -3.6058462 -0.96167642 13 5
32.785728 -11.391541 6.7466249 3 13
13.409299 -4.6617408 -0.744008 20 6
20.292791 -7.0627265 -0.37505224 21 7
4.3675647 -1.5269326 -1.2397434 16 0
21.151831 -7.3989778 0.39114332 12 8
5.128067 -1.7948186 -1.2543271 13 1
22.054676 -7.7234373 1.2246615 12 9
5.8181734 -2.0374951 -1.1982806 11 2
34.012821 -11.917786 3.1531203 3 10
7.1489558 -2.5063305 -1.1998525 11 3
