# .PCD v0.7 - Point Cloud Data file format
VERSION 0.7
FIELDS x y z intensity ring
SIZE 4 4 4 4 2
TYPE F F F F U
COUNT 1 1 1 1 1
WIDTH 1283
HEIGHT 1
VIEWPOINT 0 0 0 1 0 0 0
POINTS 1283
DATA ascii
-5.7241535 6.6408625 2.0241096 97 14
-5.8124652 6.7433171 -0.15539622 103 7
-5.6847467 6.5974727 2.3335128 97 15
-3.3539507 3.9034591 -1.3789879 35 0
-5.7915668 6.7428322 0.15515189 102 8
-3.7716274 4.3926687 -1.3366592 60 1
-5.7834606 6.7381516 0.46537137 119 9
-4.1467462 4.8312602 -1.2375872 46 2
-5.7746735 6.7302904 0.77586043 79 10
-4.7506609 5.5387759 -1.155738 25 3
-5.7628117 6.721211 1.0870746 84 11
-5.7513037 6.7101588 -1.0851247 97 4
-5.7425542 6.7023177 1.3978986 87 12
-5.7532454 6.7171679 -0.77376866 61 5
-5.7112594 6.6681471 1.7065957 100 13
-5.7713275 6.7406607 -0.46505737 60 6
-5.6907983 6.6489606 2.0205104 94 14
-5.7825122 6.7584968 -0.15525661 106 7
-5.6504831 6.6065178 2.3293715 95 15
-3.3346076 3.9098451 -1.3769174 39 0
-5.7576151 6.7508345 0.15487266 86 8
-3.7448933 4.3924599 -1.33261 53 1
-5.7430611 6.7385387 0.46401063 116 9
-4.1150064 4.8299866 -1.2333894 43 2
-5.7396307 6.7392774 0.77446592 79 10
-4.7200832 5.5441194 -1.153235 26 3
-5.7212977 6.7201266 1.0836623 111 11
-5.7098351 6.7090287 -1.0817124 99 4
-5.7101622 6.711792 1.3957086 90 12
-5.7194352 6.7250695 -0.77237415 55 5
-5.6753383 6.6755724 1.7031612 100 13
-5.7181263 6.7282867 -0.46275455 59 6
-5.6487279 6.6489806 2.0142117 96 14
-5.7433467 6.760354 -0.15483776 103 7
-5.61238 6.6085329 2.3231599 95 15
-3.3209383 3.9214621 -1.3769174 35 0
-5.7186184 6.7551041 0.1544887 105 8
-3.7199557 4.3957438 -1.3294607 60 1
-5.6949911 6.7295761 0.46202186 123 9
-4.0892444 4.8338299 -1.2307181 47 2
-5.701921 6.7425351 0.7725485 75 10
-4.7223825 5.5862064 -1.1585537 23 3
-5.6850986 6.7274041 1.0814687 114 11
-5.657023 6.6965513 -1.0763502 99 4
-5.6739521 6.7165914 1.3925798 93 12
-5.6843576 6.7312918 -0.77080542 52 5
-5.6406016 6.6818423 1.6997266 100 13
-5.681726 6.7329412 -0.46170786 60 6
-5.6028676 6.6418447 2.0061135 97 14
-5.7003736 6.757432 -0.15431418 109 7
-5.5793152 6.6162672 2.3190186 97 15
-3.2997689 3.92416 -1.3738115 34 0
-5.6820288 6.7571979 0.15410475 102 8
-3.7003438 4.4020882 -1.3276612 61 1
-5.6611886 6.7371807 0.46118447 123 9
-4.0660315 4.84056 -1.2288101 43 2
-5.6578517 6.7379832 0.76975954 75 10
-4.7749686 5.6865501 -1.1760744 30 3
-5.6538262 6.7355752 1.0797625 111 11
-5.6271272 6.706151 -1.0748878 99 4
-5.6276197 6.709116 1.3869481 96 12
-5.6352248 6.7205577 -0.7673192 52 5
-5.604538 6.6839609 1.6955289 94 13
-5.6465354 6.7364407 -0.46066111 56 6
-5.568295 6.6454535 2.0016146 94 14
-5.6549244 6.7512274 -0.1537208 72 7
-5.540062 6.6164484 2.3122892 88 15
-3.2755928 3.9217362 -1.3691529 35 0
-5.6404648 6.7554984 0.15361607 78 8
-3.6862025 4.4164753 -1.3281111 57 1
-5.627399 6.7446342 0.46034712 119 9
-4.0499582 4.8540158 -1.2288101 43 2
-5.6176095 6.7352891 0.7673192 71 10
-4.6437697 5.5696707 -1.148542 22 3
-5.6175685 6.7400222 1.0773251 111 11
-5.5935197 6.7135506 -1.0729378 99 4
-5.5915265 6.7135396 1.3838195 96 12
-5.5938821 6.7187524 -0.76487875 49 5
-5.5610723 6.6793447 1.6894228 96 13
-5.6102114 6.7407575 -0.45961443 57 6
-5.5375872 6.6558599 1.9989151 89 14
-5.6121421 6.7478657 -0.15319723 68 7
-5.4947028 6.6090064 2.3029721 84 15
-3.2685957 3.9426382 -1.3722585 37 0
-5.5913258 6.7443566 0.15291798 78 8
-3.6695213 4.427814 -1.3276612 55 1
-5.5910807 6.7488542 0.45930037 119 9
-4.0321412 4.8688264 -1.2288101 43 2
-5.5776405 6.7374163 0.76522744 77 10
-4.6082101 5.5683928 -1.1447875 22 3
-5.5724902 6.7335935 1.0731815 107 11
-5.5599298 6.7207971 -1.0709878 107 4
-5.5554695 6.717792 1.3806907 93 12
-5.5602379 6.7259541 -0.7634843 51 5
-5.5190463 6.6784935 1.6840802 94 13
-5.5702014 6.7427983 -0.45835835 59 6
-5.5007443 6.6610866 1.994416 89 14
-5.5719986 6.7473712 -0.15274347 72 7
-5.4593029 6.6132474 2.2977955 90 15
-3.2499011 3.9480581 -1.370188 40 0
-5.5551353 6.7509065 0.15260385 81 8
-3.6396489 4.4246798 -1.3227122 58 1
-5.5485468 6.7477055 0.45783499 119 9
-4.0126257 4.8798394 -1.2280468 43 2
-5.5414348 6.7414541 0.7634843 73 10
-4.6075573 5.6073365 -1.1494806 26 3
-5.5263543 6.7278938 1.0690379 104 11
-5.5163617 6.7181187 -1.0673318 122 4
-5.5207825 6.7258959 1.3781878 93 12
-5.5241756 6.7324247 -0.7619155 54 5
-5.4820004 6.681025 1.6798825 100 13
-5.5288992 6.7405801 -0.45689294 62 6
-5.4601622 6.6591492 1.9881173 94 14
-5.5370908 6.7553744 -0.15246421 75 7
-5.426455 6.6227536 2.294172 95 15
-3.2415214 3.967423 -1.3727763 40 0
-5.527739 6.7656126 0.15249914 86 8
-3.6192517 4.4313197 -1.3209126 58 1
-5.5047507 6.7422776 0.45616025 121 9
-3.9909904 4.8899498 -1.2269019 45 2
-5.5091329 6.7524548 0.76243842 75 10
-4.5595088 5.5905075 -1.1425974 25 3
-5.4902911 6.7317595 1.0666007 104 11
-5.4728098 6.7127156 -1.063432 110 4
-5.4798007 6.7236872 1.3738077 99 12
-5.490572 6.7393112 -0.76052105 59 5
-5.4500389 6.6919374 1.6775929 100 13
-5.4915481 6.7453094 -0.45584619 61 6
-5.4111152 6.6488891 1.9791193 100 14
-5.5008526 6.7591529 -0.15211518 103 7
-5.3911142 6.626668 2.2889957 97 15
-3.2241716 3.9715867 -1.3707057 38 0
-5.4926701 6.7683797 0.15215008 102 8
-3.5971696 4.4342179 -1.3182131 62 1
-5.4697828 6.7449799 0.4551135 119 9
-3.9706631 4.8963633 -1.2253754 46 2
-5.4690704 6.7465148 0.75982374 83 10
-4.5879378 5.6615901 -1.1541736 30 3
-5.45544 6.7345047 1.0641632 84 11
-5.4392734 6.7169442 -1.0612383 100 4
-5.4326153 6.7111168 1.3675503 96 12
-5.4518237 6.7348456 -0.7580806 57 5
-5.4154019 6.6922402 1.673395 100 13
-5.457768 6.7470021 -0.4547995 64 6
-5.3803992 6.6537323 1.9755201 97 14
-5.4633241 6.7586942 -0.15169632 106 7
-5.3496809 6.6204691 2.2807136 100 15
-3.2005889 3.9707851 -1.3665646 40 0
-5.4514465 6.7657099 0.15166141 102 8
-3.5828927 4.4482641 -1.3186631 65 1
-5.4349303 6.7500334 0.45417148 117 9
-3.9510837 4.9071364 -1.2246122 45 2
-5.428 6.7438345 0.75738341 79 10
-4.6127281 5.732976 -1.1654369 33 3
-5.4244356 6.7442245 1.0627007 84 11
-5.403357 6.7204189 -1.0588009 95 4
-5.4017315 6.7207985 1.3656731 90 12
-5.4108086 6.7320924 -0.75564027 56 5
-5.3760247 6.691205 1.6684339 100 13
-5.4241786 6.7535539 -0.45396215 64 6
-5.3522615 6.6663928 1.9737206 94 14
-5.4221764 6.7558889 -0.15120766 107 7
-5.3071971 6.6149926 2.2724314 95 15
-3.1915359 3.987967 -1.3686352 38 0
-5.4090571 6.7612772 0.15113784 105 8
-3.570996 4.4653087 -1.3200128 62 1
-5.4001093 6.7549253 0.45322946 121 9
-3.9388328 4.9270334 -1.2261386 45 2
-5.394474 6.7502909 0.75598896 81 10
-4.5988541 5.7567577 -1.1670012 30 3
-5.3859944 6.7445059 1.0597758 104 11
-5.3650022 6.720624 -1.0558761 95 4
-5.3659191 6.7241721 1.3625443 90 12
-5.3711867 6.7331901 -0.75354856 60 5
-5.330596 6.6823068 1.6615648 100 13
-5.3831367 6.750586 -0.45249674 61 6
-5.3119516 6.6637039 1.9674219 99 14
-5.3885899 6.7622657 -0.15092842 102 7
-5.2744436 6.6213913 2.2682903 97 15
-3.181705 4.0056882 -1.3707057 40 0
-5.375474 6.7675891 0.1508586 105 8
-3.543268 4.4624858 -1.3155137 63 1
-5.361599 6.7549601 0.45197338 119 9
-3.9061055 4.9229808 -1.2215593 47 2
-5.357316 6.754405 0.75424576 81 10
-4.5985856 5.79989 -1.17232 24 3
-5.3451538 6.7414865 1.0563636 111 11
-5.3254824 6.7190847 -1.0527074 90 4
-5.3325992 6.7304769 1.3600414 90 12
-5.34023 6.7425256 -0.75250268 58 5
-5.2963204 6.6894841 1.6585119 100 13
-5.3335695 6.7389474 -0.45040327 59 6
-5.270566 6.6617308 1.9611233 97 14
-5.3550282 6.768487 -0.15064916 102 7
-5.2417116 6.6276379 2.264149 93 15
-3.1665077 4.0152521 -1.370188 42 0
-5.3394899 6.7731142 0.15054446 102 8
-3.5160339 4.4616666 -1.3114647 65 1
-5.3194447 6.7501025 0.45040327 123 9
-3.8864686 4.9335003 -1.220796 47 2
-5.3238435 6.7605438 0.75285131 79 10
-4.5746474 5.8112497 -1.1713815 27 3
-5.3056793 6.742312 1.0534387 104 11
-5.2824078 6.7151566 -1.0490514 99 4
-5.2968578 6.7335258 1.3569127 96 12
-5.300653 6.7407641 -0.75023663 65 5
-5.2644434 6.6971283 1.6558405 94 13
-5.3026085 6.7481031 -0.44977528 60 6
-5.2304282 6.6586328 1.9548247 97 14
-5.3190174 6.7714119 -0.15030013 74 7
-5.2078061 6.6322222 2.2594905 91 15
-3.1429439 4.0141134 -1.366047 41 0
-5.3022075 6.7718873 0.15012559 86 8
-3.4976149 4.468699 -1.310115 63 1
-5.2835407 6.7529006 0.44935656 123 9
-3.8655939 4.9423981 -1.2196511 43 2
-5.2830334 6.7571111 0.75041097 79 10
-4.5261493 5.7890401 -1.1638726 18 3
-5.2747331 6.7489214 1.0517325 107 11
-5.252779 6.7232499 -1.0475889 102 4
-5.2538681 6.7270637 1.3519068 90 12
-5.2599244 6.7372413 -0.7477963 65 5
-5.2277088 6.6959777 1.6512611 94 13
-5.2703719 6.7530522 -0.44893786 56 6
-5.1987276 6.663651 1.9512255 92 14
-5.2744408 6.7631316 -0.14970674 74 7
-5.1703715 6.6320763 2.2532787 88 15
-3.1141996 4.0046883 -1.3593177 37 0
-5.2601295 6.7666721 0.14960203 81 8
-3.4772127 4.4747252 -1.3083154 63 1
-5.2525868 6.7618384 0.44872853 124 9
-3.849184 4.9551888 -1.2196511 48 2
-5.2422695 6.7509875 0.7477963 75 10
-4.5059152 5.8048034 -1.1638726 17 3
-5.2365408 6.7484722 1.0488076 87 11
-5.2244129 6.7352695 -1.0466141 99 4
-5.2182522 6.7297511 1.3487781 96 12
-5.2205048 6.7350903 -0.74553025 62 5
-5.1922741 6.6986694 1.6474451 92 13
-5.2345357 6.7556205 -0.44789118 59 6
-5.1658902 6.6694303 1.9476261 90 14
-5.2287626 6.7530432 -0.14907846 75 7
-5.1306367 6.6286945 2.2460318 91 15
-3.0971384 4.0130167 -1.3582823 39 0
-5.2144837 6.7564979 0.14897373 81 8
-3.4603798 4.4852934 -1.3078654 60 1
-5.2130933 6.759573 0.44736779 121 9
-3.8309951 4.9692645 -1.2196511 48 2
-5.2077589 6.7575321 0.74640173 71 10
-4.5002804 5.8416238 -1.1679399 28 3
-5.2020478 6.7525587 1.0466141 84 11
-5.1839128 6.7314482 -1.0432017 97 4
-5.1826768 6.7322731 1.3456494 93 12
-5.1848135 6.7374811 -0.74378711 61 5
-5.146142 6.6896443 1.6405759 100 13
-5.1975627 6.7589278 -0.44684443 61 6
-5.1319075 6.675961 1.9440269 92 14
-5.2002845 6.7649107 -0.14893883 70 7
-5.0968723 6.6327791 2.2413731 95 15
-3.0901625 4.0330038 -1.3613882 40 0
-5.184823 6.7692142 0.14883412 81 8
-3.4285173 4.4778309 -1.3020166 63 1
-5.1785402 6.7634559 0.44642577 123 9
-3.8327191 5.0075507 -1.225757 43 2
-5.1720333 6.7598448 0.74465865 75 10
-4.4474607 5.8149309 -1.1594924 26 3
-5.1483278 6.7337308 1.0407642 78 11
-5.144742 6.7314749 -1.0402768 102 4
-5.1543489 6.7440443 1.344398 90 12
-5.1515889 6.7428722 -0.7423926 61 5
-5.1144199 6.6966443 1.6379045 100 13
-5.1569724 6.7548046 -0.44537902 61 6
-5.0920224 6.6721449 1.9377284 97 14
-5.1669354 6.7703042 -0.1486596 70 7
-5.0619712 6.6351695 2.2361965 97 15
-3.0924411 4.0652909 -1.3686352 39 0
-5.1502409 6.770453 0.14848508 84 8
-3.4195459 4.4969325 -1.3042662 67 1
-5.1379771 6.759232 0.44496036 123 9
-3.8033392 5.0052662 -1.2219409 43 2
-5.1399679 6.7667527 0.74343848 79 10
-4.4054494 5.7997613 -1.1535479 13 3
-5.1175642 6.7397008 1.0390581 81 11
-5.1031895 6.7231984 -1.0363771 102 4
-5.1104755 6.7352443 1.3390791 85 12
-5.1183863 6.7481155 -0.74099815 59 5
-5.0862503 6.7057476 1.6359965 100 13
-5.1248889 6.7591376 -0.44454166 62 6
-5.0510335 6.6641464 1.9305301 99 14
-5.1311927 6.7723608 -0.14831054 75 7
-5.0294471 6.64048 2.2320557 100 15
-3.067297 4.0601101 -1.3634588 37 0
-5.1241646 6.7852001 0.14841527 84 8
-3.4132221 4.5212831 -1.3078654 72 1
-5.099916 6.7579937 0.44370431 117 9
-3.7772582 5.0053153 -1.2188879 49 2
-5.1031027 6.7646728 0.74134672 79 10
-4.36377 5.7867131 -1.1479162 20 3
-5.0916195 6.7543526 1.0385706 81 11
-5.0701318 6.7282896 -1.0344272 97 4
-5.0679193 6.7277966 1.3340733 85 12
-5.0791988 6.7427707 -0.7385577 59 5
-5.0521851 6.7093449 1.6325619 100 13
-5.0916562 6.7642193 -0.44370431 61 6
-5.0183678 6.6692781 1.9269307 99 14
-5.0906944 6.7678561 -0.14782189 103 7
-4.9876618 6.6332889 2.2237732 95 15
-3.0415154 4.0553365 -1.3582823 35 0
-5.0848527 6.7822466 0.14796151 86 8
-3.3985889 4.534729 -1.3083154 72 1
-5.0655179 6.7613668 0.44276223 119 9
-3.7632957 5.0231829 -1.2200328 46 2
-5.065125 6.763309 0.73925501 89 10
-4.3447294 5.8034906 -1.1482291 27 3
-5.056119 6.7561898 1.0361333 87 11
-5.0394783 6.7364106 -1.0329647 97 4
-5.0373068 6.7359529 1.3321961 87 12
-5.0437002 6.7445021 -0.73681462 62 5
-5.0146265 6.7080712 1.6279825 100 13
-5.0584474 6.7691536 -0.44286692 60 6
-4.9857283 6.6742644 1.9233315 97 14
-5.0574656 6.772769 -0.14754264 106 7
-4.9517636 6.6336317 2.2180793 91 15
-3.0319552 4.0721278 -1.3603529 38 0
-5.0384636 6.769475 0.14729832 84 8
-3.3769212 4.5387478 -1.3060658 67 1
-5.0395002 6.775804 0.44255289 119 9
-3.7515955 5.0441661 -1.2219409 43 2
-5.0296001 6.7649584 0.73751193 86 10
-4.3444748 5.8455753 -1.1535479 23 3
-5.0194802 6.7562709 1.0334522 104 11
-5.0005479 6.733242 -1.0297961 93 4
-5.0031638 6.7392216 1.3293802 90 12
-5.0070715 6.7469444 -0.73507148 60 5
-4.9724617 6.7003088 1.6218765 100 13
-5.0228887 6.7707272 -0.44182017 59 6
-4.9531126 6.6791062 1.9197323 96 14
-5.0242686 6.7775297 -0.14726341 75 7
-4.9182267 6.6369047 2.2134204 93 15
-3.0147147 4.0801053 -1.3593177 40 0
-5.0076747 6.7773709 0.14708889 84 8
-3.3471651 4.5316968 -1.3006669 63 1
-4.9992099 6.7708583 0.44108748 121 9
-3.7330835 5.0578818 -1.2219409 43 2
-4.995306 6.7705216 0.73611736 86 10
-4.3300562 5.8709965 -1.1554251 24 3
-4.9793715 6.7513843 1.0300398 111 11
-4.9628797 6.731482 -1.0268712 93 4
-4.9725757 6.7471046 1.327503 93 12
-4.9787645 6.7579646 -0.73437428 58 5
-4.9385581 6.7058415 1.6188235 100 13
-4.9767237 6.7601414 -0.43993607 55 6
-4.9147367 6.6783819 1.9143335 90 14
-4.9910951 6.7821417 -0.14698416 106 7
-4.8824391 6.6369143 2.2077267 88 15
-3.0027382 4.0937195 -1.3603529 36 0
-4.972157 6.781167 0.14677474 86 8
-3.3213155 4.5313616 -1.2970678 60 1
-4.9590135 6.7657175 0.43962207 123 9
-3.6910369 5.0376258 -1.2139269 47 2
-4.9622254 6.7750578 0.73472291 79 10
-4.3153701 5.8940463 -1.1569895 18 3
-4.9452124 6.7567754 1.0280899 111 11
-4.9252787 6.7320046 -1.0241901 95 4
-4.9373317 6.7484784 1.3243743 96 12
-4.9457335 6.7624388 -0.73297983 55 5
-4.9058495 6.7103615 1.6157707 100 13
-4.9413133 6.7613463 -0.43888938 56 6
-4.8753028 6.6734667 1.9080348 94 14
-4.9555964 6.7833748 -0.14663512 74 7
-4.8546829 6.6476774 2.2056561 91 15
-2.9793336 4.091682 -1.3562119 37 0
-4.9390502 6.7830677 0.14646059 84 8
-3.3062718 4.5423498 -1.2970678 61 1
-4.9212666 6.7636046 0.43836603 123 9
-3.6549542 5.025075 -1.207821 45 2
-4.9233155 6.7713881 0.73245686 77 10
-4.2807002 5.8875532 -1.1529222 20 3
-4.9146099 6.7618947 1.0263836 107 11
-4.8947577 6.7370596 -1.0224838 93 4
-4.8974943 6.7432942 1.3199942 96 12
-4.8998594 6.7490273 -0.7296679 49 5
-4.8731909 6.7122941 1.6123362 94 13
-4.9165163 6.7744632 -0.43867999 56 6
-4.8462811 6.6801314 1.9053354 92 14
-4.9178014 6.7812047 -0.14621626 74 7
-4.8178411 6.6458154 2.1994443 84 15
-2.9566941 4.089015 -1.3520708 37 0
-4.9024549 6.7824411 0.14607665 78 8
-3.3018076 4.5696592 -1.3015668 60 1
-4.8941207 6.7758842 0.43805203 123 9
-3.6486173 5.0514913 -1.2112557 43 2
-4.8845038 6.7650638 0.73001647 73 10
-4.2450929 5.8816385 -1.1488549 17 3
-4.8840098 6.7693496 1.0249213 107 11
-4.8630848 6.7428336 -1.0207777 99 4
-4.8646827 6.7475309 1.3174912 103 12
-4.8634672 6.7458453 -0.72757614 51 5
-4.8313632 6.7037816 1.6062301 100 13
-4.8835006 6.7786193 -0.43784264 57 6
-4.8183765 6.6906838 1.903536 89 14
-4.8719001 6.7674961 -0.14555307 68 7
-4.7754321 6.6359353 2.1906445 87 15
-2.9401484 4.0961728 -1.3510355 36 0
-4.8624306 6.7767649 0.14558797 76 8
-3.2915165 4.5890746 -1.3038163 62 1
-4.8599625 6.7783189 0.43710995 123 9
-3.6321046 5.065793 -1.2116373 47 2
-4.8492541 6.7658772 0.72827333 73 10
-4.170465 5.8209481 -1.13415 20 3
-4.841855 6.7605357 1.0210215 107 11
-4.8302751 6.7468543 -1.0188278 99 4
-4.8273053 6.7451935 1.3137368 92 12
-4.8340936 6.7546787 -0.72670454 54 5
-4.7930841 6.6998458 1.6012691 100 13
-4.8458691 6.7761278 -0.43658656 60 6
-4.7768607 6.682096 1.8963374 83 14
-4.8447614 6.7795792 -0.14544836 72 7
-4.7455025 6.6431313 2.1875386 100 15
-2.923589 4.1032648 -1.3500001 37 0
-4.8306265 6.7822938 0.14534363 84 8
-3.2573948 4.5751352 -1.2966179 62 1
-4.8200569 6.7724624 0.43564454 123 9
-3.6143982 5.0784416 -1.2116373 47 2
-4.8163686 6.769774 0.72687888 77 10
-4.1386704 5.8193736 -1.1310214 22 3
-4.8009725 6.7531295 1.0173653 104 11
-4.7928934 6.7442575 -1.015903 97 4
-4.7934327 6.7475104 1.310921 99 12
-4.8000741 6.759357 -0.72531009 56 5
-4.7673936 6.7133369 1.6005059 100 13
-4.8059988 6.7702022 -0.43512118 62 6
-4.7399716 6.6796598 1.8909385 83 14
-4.8164368 6.7899261 -0.14530873 75 7
-4.7155786 6.6502013 2.184433 93 15
-2.9085312 4.1139522 -1.3500001 36 0
-4.799994 6.789319 0.14513421 81 8
-3.2369044 4.5801129 -1.2948182 63 1
-4.7802544 6.766408 0.43417913 121 9
-3.5821712 5.0724096 -1.2070577 47 2
-4.7846279 6.777617 0.725833 77 10
-4.1207318 5.839344 -1.1319599 32 3
-4.7647815 6.7520041 1.0146842 87 11
-4.753304 6.7382364 -1.0124906 102 4
-4.7561917 6.7448282 1.3071665 90 12
-4.7672691 6.7630424 -0.72391564 60 5
-4.7359724 6.7211351 1.5982162 100 13
-4.7731028 6.7763405 -0.43438846 66 6
-4.7019963 6.677866 1.8855397 89 14
-4.7788925 6.7870755 -0.14488988 103 7
-4.6890011 6.66188 2.1828799 100 15
-2.8919346 4.1209168 -1.3489649 37 0
-4.7670403 6.7954054 0.14488988 86 8
-3.217859 4.5887542 -1.2939185 70 1
-4.7473955 6.7724357 0.43344644 123 9
-3.5520458 5.0672002 -1.20286 43 2
-4.7529349 6.7828565 0.72461283 81 10
-4.1343246 5.9022303 -1.141346 35 3
-4.7388616 6.7677975 1.0144405 84 11
-4.7194672 6.7426038 -1.0105407 97 4
-4.7155852 6.7395544 1.3027864 90 12
-4.7344956 6.7665815 -0.72252107 57 5
-4.7012277 6.7215381 1.5943999 100 13
-4.7425518 6.7831407 -0.43376043 71 6
-4.6719608 6.6846542 1.8828404 100 14
-4.7425303 6.7881546 -0.14454083 106 7
-4.6424289 6.647347 2.1725271 100 15
-2.8686976 4.1183052 -1.3448237 45 0
-4.7295775 6.7923136 0.14447103 86 8
-3.1973674 4.5935621 -1.2921189 63 1
-4.7146025 6.7758498 0.43260908 117 9
-3.5264885 5.0682864 -1.2001886 47 2
-4.7110291 6.7732353 0.72182387 79 10
-4.1170778 5.9214926 -1.1422846 32 3
-4.7072802 6.7728872 1.0127343 107 11
-4.686842 6.7459931 -1.0085907 99 4
-4.6841421 6.7446179 1.3005962 87 12
-4.691525 6.7552485 -0.71955782 51 5
-4.6665421 6.7217798 1.5905839 100 13
-4.7074594 6.7832451 -0.43271375 68 6
-4.6441541 6.6945186 1.8810407 100 14
-4.7074127 6.7882347 -0.14419177 105 7
-4.6081924 6.6476336 2.1673508 100 15
-2.8543053 4.128293 -1.3448237 44 0
-4.6910596 6.787395 0.14401726 81 8
-3.1713426 4.5902658 -1.2880697 61 1
-4.6852479 6.7840476 0.43208569 119 9
-3.5165861 5.0918727 -1.20286 43 2
-4.6828308 6.7830791 0.72112656 89 10
-4.0941372 5.9325767 -1.1416589 32 3
-4.672338 6.7729354 1.0102969 114 11
-4.6542521 6.7492375 -1.0066408 99 4
-4.654963 6.7527971 1.299032 90 12
-4.6543446 6.7518997 -0.71746606 51 5
-4.6274562 6.715395 1.5852412 100 13
-4.6690254 6.7782526 -0.431353 64 6
-4.6074934 6.6914291 1.8756418 99 14
-4.6746192 6.7914462 -0.14391254 107 7
-4.5751023 6.6493559 2.1626918 100 15
-2.844249 4.1446042 -1.3468944 37 0
-4.6582904 6.7905354 0.14373802 81 8
-3.142076 4.5820212 -1.2826709 55 1
-4.6502438 6.7838874 0.43103898 119 9
-3.5010092 5.1073565 -1.2036232 48 2
-4.6478615 6.7829499 0.71938354 83 10
-4.0734053 5.9468312 -1.1416589 32 3
-4.6352081 6.7695498 1.0073721 114 11
-4.616087 6.7441492 -1.0034722 88 4
-4.6269021 6.7624822 1.2977805 93 12
-4.6284986 6.7648158 -0.71711749 51 5
-4.5929017 6.7153029 1.581425 100 13
-4.6250443 6.764832 -0.4294689 61 6
-4.5731134 6.6913819 1.871143 100 14
-4.6441145 6.7978168 -0.14370312 110 7
-4.5475078 6.6589031 2.1606214 100 15
-2.8326657 4.1572051 -1.3479296 35 0
-4.630116 6.7976832 0.14356351 86 8
-3.1334457 4.6020799 -1.2853703 60 1
-4.6108665 6.7745032 0.4294689 123 9
-3.4763219 5.1075764 -1.2009518 47 2
-4.618619 6.7884402 0.71833766 83 10
-4.0492196 5.9537721 -1.1404074 20 3
-4.6038065 6.77175 1.0054221 118 11
-4.5825405 6.7430005 -1.0010349 86 4
-4.5900226 6.756546 1.2937132 103 12
-4.5914264 6.7611513 -0.71502572 49 5
-4.5617852 6.7175026 1.5783721 100 13
-4.5958533 6.7702188 -0.42884085 60 6
-4.5377693 6.6871586 1.8657441 100 14
-4.608077 6.7933202 -0.14328425 102 7
-4.5188942 6.6643548 2.1575158 100 15
-2.8130829 4.1611571 -1.3458591 42 0
-4.5985222 6.8022075 0.14331917 81 8
-3.1086321 4.6000733 -1.2817712 55 1
-4.5782456 6.777318 0.42863154 125 9
-3.4564786 5.1186576 -1.2005702 43 2
-4.5825582 6.7888098 0.71659446 81 10
-4.0130057 5.9472866 -1.1363401 18 3
-4.5734763 6.7779064 1.0039597 114 11
-4.554533 6.7523732 -1.00006 88 4
-4.5487385 6.7463222 1.2887073 92 12
-4.5577745 6.7622695 -0.71345693 47 5
-4.5294533 6.7227812 1.5757008 100 13
-4.5665479 6.7803912 -0.42842221 56 6
-4.5056095 6.6924305 1.8625948 100 14
-4.5709333 6.7894602 -0.1428654 102 7
-4.4805045 6.657649 2.1502688 95 15
-2.7888522 4.1565142 -1.3412004 48 0
-4.5613046 6.8007483 0.14293522 78 8
-3.0928373 4.6130543 -1.282221 58 1
-4.5511522 6.7907343 0.42842221 124 9
-3.444056 5.1388454 -1.2024784 45 2
-4.5377645 6.773314 0.71328253 77 10
-4.0032144 5.9776711 -1.1394688 21 3
-4.540875 6.7830758 1.0022535 111 11
-4.5209231 6.7558222 -0.99811 90 4
-4.5206876 6.7580218 1.2877687 93 12
-4.5252805 6.7648878 -0.71206236 46 5
-4.4972301 6.7254939 1.5726478 94 13
-4.5361934 6.7863259 -0.42779416 59 6
-4.4746442 6.696775 1.8594455 97 14
-4.5371332 6.7928629 -0.14258616 105 7
-4.443202 6.6547456 2.144057 95 15
-2.7689714 4.158185 -1.3386122 46 0
-4.5164857 6.7849998 0.14227203 73 8
-3.0734761 4.6189556 -1.2808713 60 1
-4.5163574 6.7899504 0.42737547 123 9
-3.4195719 5.1410289 -1.2001886 46 2
-4.5096831 6.7824755 0.71258533 71 10
-3.9866962 5.9981899 -1.1407202 25 3
-4.5072813 6.7840052 1.00006 114 11
-4.4896274 6.7599859 -0.99640387 95 4
-4.4916058 6.7655339 1.2862043 103 12
-4.4895158 6.7623854 -0.710145 49 5
-4.4585266 6.7182512 1.5673052 96 13
-4.4970217 6.7788181 -0.42632878 60 6
-4.4426227 6.6993613 1.8558462 96 14
-4.5045538 6.7953267 -0.14230692 74 7
-4.411407 6.6573329 2.1399159 100 15
-2.7565708 4.1710477 -1.3396474 50 0
-4.4850569 6.7890453 0.14202769 76 8
-3.0476701 4.6150198 -1.2768222 58 1
-4.4805264 6.7873378 0.42622405 123 9
-3.4070146 5.1611252 -1.2020967 43 2
-4.4804916 6.7898622 0.71171379 79 10
-3.9668229 6.0137172 -1.1410331 27 3
-4.46172 6.766552 0.99518514 107 11
-4.4550762 6.7590427 -0.9939664 99 4
-4.4560094 6.7630262 1.2827629 90 12
-4.4636922 6.7746868 -0.70979631 49 5
-4.4307299 6.7272139 1.5657787 96 13
-4.4645433 6.7811294 -0.42549136 62 6
-4.4084983 6.6985493 1.8513472 97 14
-4.4742136 6.8009849 -0.14209749 107 7
-4.3817744 6.6630054 2.1368101 95 15
-2.7398763 4.177413 -1.3386122 44 0
-4.4558473 6.7962995 0.14185315 81 8
-3.0304751 4.6239996 -1.2763723 60 1
-4.4436746 6.7828879 0.42496803 119 9
-3.4029653 5.194335 -1.2070577 54 2
-4.4469376 6.7904606 0.710145 75 10
-3.9295795 6.0027361 -1.1363401 15 3
-4.4282923 6.7671351 0.99299151 104 11
-4.4140673 6.7479744 -0.99006665 97 4
-4.4204841 6.7603517 1.2793212 85 12
-4.4302049 6.775218 -0.70822757 48 5
-4.3986254 6.7294941 1.5627258 100 13
-4.4299188 6.7799535 -0.42444465 64 6
-4.370172 6.6910539 1.8450485 96 14
-4.4395127 6.7998185 -0.14174846 102 7
-4.3542638 6.6717896 2.1347394 97 15
-2.7242224 4.1853333 -1.3380945 47 0
-4.4277358 6.8051071 0.14171354 73 8
-3.0100646 4.628016 -1.2745727 61 1
-4.4135323 6.7858667 0.42423528 116 9
-3.3773208 5.1946611 -1.2043865 52 2
-4.4123511 6.7892346 0.70840186 73 10
-3.8849249 5.9799743 -1.129457 16 3
-4.3981547 6.7725635 0.99152911 84 11
-4.3840022 6.7533498 -0.98860419 102 4
-4.3829818 6.7517781 1.2749411 87 12
-4.39785 6.7772717 -0.70683306 47 5
-4.367631 6.7332768 1.5600544 100 13
-4.4018807 6.788671 -0.42402595 62 6
-4.3404279 6.6964574 1.8423492 97 14
-4.4017134 6.7910094 -0.14125979 102 7
-4.3153095 6.6602511 2.1264575 93 15
-2.7022603 4.1834574 -1.334471 49 0
-4.3953815 6.8046336 0.1413994 76 8
-2.9999874 4.6461577 -1.2768222 58 1
-4.3844047 6.7928414 0.42371196 112 9
-3.3495891 5.1915703 -1.2009518 41 2
-4.3778281 6.7878518 0.70665878 77 10
-3.8554385 5.9778829 -1.1266412 16 3
-4.3713703 6.780436 0.99055409 84 11
-4.3572831 6.7611756 -0.98762923 99 4
-4.3518996 6.7554116 1.272751 96 12
-4.3590627 6.7691321 -0.70439273 46 5
-4.3346472 6.7312179 1.5562382 100 13
-4.3750215 6.7965126 -0.42360729 61 6
-4.3139811 6.704258 1.8405495 97 14
-4.3714886 6.7962432 -0.14105035 105 7
-4.2774062 6.6525259 2.1192105 100 15
-2.6894143 4.1940227 -1.3349887 47 0
-4.3597293 6.8014174 0.14101544 84 8
-2.978493 4.6483979 -1.2745727 60 1
-4.3542013 6.7980142 0.42308393 119 9
-3.3291769 5.1976905 -1.199807 43 2
-4.345624 6.787231 0.70508993 79 10
-3.8462605 6.0096073 -1.1300827 16 3
-4.3348365 6.775589 0.98762923 84 11
-4.3283067 6.7679844 -0.98641062 93 4
-4.3208427 6.7589126 1.270561 87 12
-4.3333731 6.7785125 -0.70386976 49 5
-4.2963257 6.723146 1.5508956 100 13
-4.3362164 6.7881794 -0.42214185 62 6
-4.2821608 6.7061372 1.8369503 100 14
-4.3412852 6.8013468 -0.14084093 110 7
-4.2520809 6.6641579 2.118175 95 15
-2.6726847 4.2001243 -1.3339534 47 0
-4.3273768 6.8030949 0.14073621 84 8
-2.9517939 4.6423211 -1.2700737 61 1
-4.3143764 6.7878871 0.42151386 116 9
-3.3257585 5.2324762 -1.2051498 48 2
-4.3165646 6.7939491 0.70421833 73 10
-3.8517368 6.064683 -1.1379044 22 3
-4.3015842 6.7755952 0.98543561 87 11
-4.2887011 6.7579083 -0.98275441 95 4
-4.2908726 6.7639456 1.2686837 87 12
-4.3000784 6.7784572 -0.70230097 46 5
-4.2654729 6.7264953 1.5482242 96 13
-4.2975254 6.7796569 -0.42067644 57 6
-4.2482934 6.7045841 1.8324513 96 14
-4.3132391 6.809701 -0.14070129 74 7
-4.2225938 6.6691656 2.1150692 97 15
-2.6569746 4.2077956 -1.3334358 42 0
-4.296133 6.8063211 0.14049187 76 8
-2.93453 4.650949 -1.2696238 62 1
-4.2799993 6.7860131 0.42046711 117 9
-3.3011878 5.2340908 -1.20286 43 2
-4.2885747 6.8022337 0.70352113 75 10
-3.8347547 6.0847774 -1.139156 22 3
-4.2704988 6.7788134 0.98372942 104 11
-4.2502775 6.7493205 -0.9793421 95 4
-4.2619758 6.7705235 1.2671193 90 12
-4.2689619 6.7816215 -0.7010808 51 5
-4.237783 6.7346983 1.5466977 96 13
-4.2695789 6.7878556 -0.42025778 61 6
-4.2103438 6.6962752 1.8261526 96 14
-4.2787995 6.8077865 -0.14035226 102 7
-4.186954 6.6642365 2.1088579 100 15
-2.6504769 4.2301402 -1.3375769 41 0
-4.2691627 6.8161926 0.14038716 84 8
-2.9162099 4.6578603 -1.268724 63 1
-4.2478104 6.7873673 0.41962975 117 9
-3.2891474 5.2555671 -1.2051498 48 2
-4.2521214 6.7968936 0.70142943 75 10
-3.7894034 6.0596037 -1.1319599 22 3
-4.2426019 6.7869444 0.98275441 104 11
-4.2224832 6.7573833 -0.97836721 95 4
-4.2268057 6.7669282 1.2636777 87 12
-4.2325988 6.7762032 -0.69898903 58 5
-4.2090516 6.7411227 1.5447898 100 13
-4.2395153 6.7925515 -0.41962975 56 6
-4.1807561 6.7010102 1.8234532 94 14
-4.2444291 6.8057117 -0.1400032 102 7
-4.1534472 6.662416 2.1036813 95 15
-2.6254954 4.2229595 -1.3324004 44 0
-4.2358418 6.8157682 0.14007302 76 8
-2.9030192 4.672977 -1.2700737 61 1
-4.220932 6.7970614 0.4193157 121 9
-3.2697473 5.2653475 -1.2047681 47 2
-4.2178612 6.7947688 0.69968635 73 10
-3.7515652 6.0459371 -1.1269541 24 3
-4.2136559 6.7932777 0.98153585 107 11
-4.1946836 6.7653337 -0.97739226 97 4
-4.1979575 6.7732458 1.2621135 99 12
-4.202486 6.7832031 -0.69811749 59 5
-4.1741195 6.7374167 1.540592 94 13
-4.2115707 6.8005171 -0.41921103 56 6
-4.153235 6.7089362 1.8216537 96 14
-4.211175 6.8051834 -0.13968907 70 7
-4.1200013 6.6604457 2.098505 93 15
-2.6079712 4.2292657 -1.3313652 43 0
-4.1941833 6.8015771 0.13947964 77 8
-2.8774855 4.6681523 -1.2660246 63 1
-4.1898446 6.7998524 0.41858301 117 9
-3.2504258 5.277297 -1.2047681 45 2
-4.1845727 6.796608 0.69829178 77 10
-3.7252378 6.0529184 -1.1257026 22 3
-4.1826315 6.7961111 0.97982955 111 11
-4.166883 6.7731705 -0.97641724 99 4
-4.1629043 6.7693501 1.2586719 94 12
-4.1683502 6.7808571 -0.69637436 56 5
-4.1370645 6.7325969 1.5360124 94 13
-4.1761656 6.7988882 -0.41816431 56 6
-4.1245403 6.7174702 1.819854 92 14
-4.1769328 6.8027997 -0.13934001 79 7
-4.0936961 6.6698461 2.096952 91 15
-2.5952096 4.2416387 -1.3324004 42 0
-4.1619234 6.8049607 0.1392353 90 8
-2.8532419 4.6670284 -1.2628752 67 1
-4.1523976 6.7947125 0.41732696 117 9
-3.2289145 5.2835846 -1.2036232 51 2
-4.1556287 6.8026743 0.6974203 69 10
-3.7164383 6.0861168 -1.129457 22 3
-4.1411481 6.7842846 0.9759298 111 11
-4.1347909 6.7765365 -0.97471106 104 4
-4.1360068 6.7811909 1.2580462 96 12
-4.1425786 6.791966 -0.69602579 55 5
-4.1033201 6.7302337 1.5321964 96 13
-4.1378541 6.7895489 -0.41669893 59 6
-4.0929542 6.7185135 1.8162549 92 14
-4.1446924 6.806107 -0.13909568 87 7
-4.0652032 6.6782064 2.0948815 88 15
-2.5803866 4.2506728 -1.3324004 39 0
-4.1350307 6.8143201 0.13913059 84 8
-2.8349111 4.6736279 -1.2619754 72 1
-4.1182971 6.792088 0.41628024 117 9
-3.1982355 5.2746797 -1.1990438 48 2
-4.1235971 6.8035069 0.69602579 69 10
-3.6900544 6.0906048 -1.1278926 22 3
-4.11127 6.7885127 0.97446734 104 11
-4.0977483 6.7688518 -0.97154254 102 4
-4.0979939 6.771925 1.2536659 94 12
-4.1147203 6.7995653 -0.69532847 49 5
-4.0757356 6.7377973 1.5306698 100 13
-4.1079297 6.7936959 -0.41607088 60 6
-4.055366 6.7094102 1.8099562 94 14
-4.1105661 6.8034182 -0.13874663 82 7
-4.0348773 6.6807785 2.0912578 95 15
-2.5605507 4.251379 -1.3298123 41 0
-4.1040001 6.8167191 0.13888624 90 8
-2.8125517 4.6734762 -1.2592759 66 1
-4.0894136 6.7978659 0.41575688 123 9
-3.1696823 5.2689891 -1.1952276 48 2
-4.0895572 6.8007841 0.69428265 68 10
-3.6779323 6.1186848 -1.1307085 29 3
-4.0814118 6.7926135 0.97300488 111 11
-4.0638762 6.7660961 -0.96910506 97 4
-4.0611138 6.7641711 1.2495986 96 12
-4.0743904 6.7889767 -0.69271386 46 5
-4.0461278 6.7418842 1.5283802 100 13
-4.0821366 6.8045673 -0.41586155 59 6
-4.0239048 6.7101541 1.806357 94 14
-4.0765095 6.8005748 -0.13839759 84 7
-4.0016041 6.6782503 2.0860815 100 15
-2.5399973 4.2524438 -1.3272241 45 0
-4.0699248 6.8138366 0.1385372 90 8
-2.7992194 4.6882844 -1.2606257 72 1
-4.0615668 6.8052382 0.41533819 119 9
-3.151356 5.2822561 -1.1956092 47 2
-4.0533795 6.7969027 0.69236517 73 10
-3.686836 6.1847248 -1.1404074 28 3
-4.0556455 6.8034081 0.97251743 111 11
-4.0402312 6.780241 -0.96910506 99 4
-4.033432 6.7715182 1.2483472 99 12
-4.0425143 6.7894616 -0.69131935 48 5
-4.0123553 6.7414846 1.5249456 100 13
-4.0510402 6.8091865 -0.41523352 57 6
-3.9933057 6.7148089 1.8036577 96 14
-4.0486598 6.8078876 -0.13825797 84 7
-3.9644463 6.668931 2.0788348 100 15
-2.5241539 4.2596211 -1.3267065 47 0
-4.0337148 6.8097816 0.13815325 93 8
-2.7750657 4.6867757 -1.2574763 67 1
-4.0304947 6.8097649 0.41471016 119 9
-3.1308994 5.2898445 -1.1948459 42 2
-4.0225258 6.7990079 0.691145 79 10
-3.6531594 6.1771522 -1.1366529 27 3
-4.0185609 6.79772 0.96959257 111 11
-4.0072756 6.7813311 -0.96715516 102 4
-4.0045695 6.7794523 1.2470957 105 12
-4.012712 6.7932377 -0.69027346 48 5
-3.9788184 6.738543 1.5211295 100 13
-4.0170965 6.8060842 -0.41418681 61 6
-3.9639022 6.718636 1.8009582 97 14
-4.0196152 6.8157921 -0.13811834 87 7
-3.9340918 6.6734309 2.0757289 100 15
-2.5102499 4.2700715 -1.3272241 46 0
-4.0058651 6.816925 0.13801363 93 8
-2.7507915 4.6829925 -1.2538772 70 1
-3.9965849 6.8065705 0.41366345 112 9
-3.1064498 5.2905846 -1.1925563 42 2
-3.9947324 6.8061361 0.69044781 79 10
-3.6305737 6.1881638 -1.1363401 29 3
-3.9777343 6.7825971 0.96544904 100 11
-3.9755468 6.781579 -0.96520531 107 4
-3.973887 6.7814598 1.2449056 96 12
-3.9829288 6.7968903 -0.68922758 48 5
-3.9473319 6.7388391 1.5180764 100 13
-3.9812024 6.7993832 -0.41293073 61 6
-3.9286115 6.7122507 1.7955593 99 14
-3.9937806 6.8263292 -0.13804853 84 7
-3.9039447 6.6754503 2.0721054 100 15
-2.492408 4.2738018 -1.3256712 37 0
-3.9770114 6.822228 0.13783911 87 8
-2.733448 4.6908813 -1.2534273 60 1
-3.9629319 6.8008037 0.41251206 114 9
-3.0919168 5.3081803 -1.1940827 47 2
-3.9699492 6.818316 0.69027346 73 10
-3.5682118 6.1308002 -1.1235124 22 3
-3.9490449 6.7878604 0.9642303 104 11
-3.936883 6.7696738 -0.96154922 107 4
-3.9444273 6.7826467 1.2427155 101 12
-3.9551756 6.8038607 -0.68853039 46 5
-3.9227998 6.7508788 1.5176948 101 13
-3.9514265 6.802876 -0.4123027 59 6
-3.8953736 6.7090697 1.7910603 97 14
-3.9610825 6.8222408 -0.13769948 103 7
-3.8788788 6.6833458 2.0705523 100 15
-2.4794083 4.285821 -1.3267065 44 0
-3.9493575 6.8267255 0.13766459 84 8
-2.725683 4.7134156 -1.2570266 62 1
-3.9321699 6.8024921 0.41177934 112 9
-3.0537233 5.2849445 -1.1864504 46 2
-3.9361613 6.8148785 0.68853039 73 10
-3.5360076 6.1220722 -1.119758 21 3
-3.9255195 6.7992005 0.96398658 100 11
-3.9114335 6.7775345 -0.96081799 96 4
-3.908884 6.7758408 1.2389611 101 12
-3.9214468 6.8003669 -0.68678725 48 5
-3.8935249 6.751946 1.5150236 100 13
-3.9248543 6.8090219 -0.41188401 56 6
-3.8672681 6.7118182 1.7883608 100 14
-3.9232702 6.8117676 -0.13721082 82 7
-3.842994 6.6750813 2.0638232 100 15
-2.4574885 4.2806158 -1.3225653 44 0
-3.9155521 6.8231244 0.13731554 96 8
-2.7111516 4.7262831 -1.2579263 62 1
-3.9006476 6.799902 0.41083729 112 9
-3.0430181 5.306963 -1.1891217 43 2
-3.9006588 6.8054237 0.68626434 86 10
-3.5195243 6.1429482 -1.1213224 18 3
-3.89979 6.8094158 0.96349907 114 11
-3.8798633 6.7773643 -0.95886809 95 4
-3.8795209 6.7767663 1.236771 110 12
-3.8879902 6.7943106 -0.68486983 50 5
-3.8621354 6.7518616 1.5119705 100 13
-3.8990808 6.819212 -0.41167465 61 6
-3.8389792 6.7168188 1.7861114 100 14
-3.8986764 6.8212671 -0.137141 87 7
-3.8093388 6.6676593 2.0576115 100 15
-2.4454002 4.2942038 -1.3241183 46 0
-3.8830101 6.8186941 0.1369665 93 8
-2.6867881 4.7200041 -1.2538772 61 1
-3.8749106 6.8100052 0.41062793 112 9
-3.0225346 5.3141389 -1.1883584 43 2
-3.8719573 6.8103366 0.68539274 77 10
-3.4639878 6.0927644 -1.110059 21 3
-3.8654163 6.8016019 0.96057427 118 11
-3.8534467 6.783288 -0.95789313 95 4
-3.8490152 6.7782416 1.2345809 105 12
-3.8553965 6.7922473 -0.68330097 47 5
-3.8242159 6.7373142 1.5058646 100 13
-3.8606777 6.8043098 -0.40999994 61 6
-3.8138018 6.7244258 1.7847617 100 14
-3.8689232 6.8243976 -0.13693158 103 7
-3.7831852 6.6758723 2.0560586 100 15
-2.4256444 4.2943044 -1.3215301 47 0
-3.8511083 6.8206921 0.13672216 87 8
-2.6512704 4.697576 -1.245329 58 1
-3.8420753 6.810245 0.40979058 109 9
-3.0049298 5.3263683 -1.1887401 46 2
-3.8422873 6.8133988 0.68434685 73 10
-3.4571521 6.1329532 -1.115065 23 3
-3.8307178 6.7984281 0.95813686 107 11
-3.8158927 6.7748823 -0.95472455 93 4
-3.8241441 6.7923045 1.2345809 110 12
-3.8277555 6.7987185 -0.68260378 46 5
-3.7956469 6.7444415 1.5043381 100 13
-3.8239598 6.7975264 -0.40874386 56 6
-3.7824419 6.72647 1.7816124 100 14
-3.8399668 6.8315587 -0.13679196 106 7
-3.7539582 6.6812739 2.0534704 100 15
-2.4134731 4.3078008 -1.323083 43 0
-3.8243463 6.8288584 0.13661744 93 8
-2.6348577 4.7068014 -1.245329 62 1
-3.8085279 6.8061843 0.40874386 116 9
-2.9844024 5.3333974 -1.1879768 45 2
-3.8126466 6.8163357 0.68330097 71 10
-3.4540408 6.1777425 -1.1210095 28 3
-3.799217 6.7978945 0.95618695 107 11
-3.7815723 6.7690969 -0.95204335 97 4
-3.7878923 6.7831903 1.2305136 103 12
-3.8040016 6.8120375 -0.68260378 47 5
-3.7682519 6.7507935 1.5028118 100 13
-3.7963178 6.8038554 -0.40832517 59 6
-3.743753 6.7124004 1.7744139 100 14
-3.80441 6.8239632 -0.1363731 105 7
-3.7259126 6.6858983 2.0508821 100 15
-2.4021757 4.3229532 -1.3251536 41 0
-3.7946579 6.8316784 0.13640802 93 8
-2.6240864 4.7261934 -1.2480285 62 1
-3.7798989 6.8107061 0.4082205 119 9
-2.9619553 5.3369174 -1.1864504 46 2
-3.7810957 6.8156662 0.68190652 75 10
-3.4027562 6.136209 -1.1113106 25 3
-3.7745008 6.8093801 0.95594323 111 11
-3.7540708 6.7753115 -0.95106846 99 4
-3.7527049 6.7756357 1.2267592 105 12
-3.7618568 6.79216 -0.67929184 45 5
-3.7408621 6.7570348 1.5012853 100 13
-3.7667406 6.8065815 -0.40769714 59 6
-3.7155812 6.7169023 1.7721643 100 14
-3.7708917 6.8197007 -0.13602406 84 7
-3.6960082 6.6870289 2.0472586 100 15
-2.3814752 4.3211608 -1.3220477 44 0
-3.7630701 6.8308692 0.13612877 84 8
-2.6056938 4.7319098 -1.2471286 58 1
-3.7483988 6.8098607 0.40738311 119 9
-2.9310017 5.3248639 -1.1814893 48 2
-3.7467182 6.8096209 0.6799891 69 10
-3.3765576 6.1393943 -1.1097462 28 3
-3.7478411 6.8172946 0.955212 114 11
-3.7303991 6.7883735 -0.95106846 97 4
-3.728081 6.7869616 1.2264463 110 12
-3.7275748 6.7860398 -0.67737442 46 5
-3.7030807 6.7442374 1.495561 100 13
-3.7410376 6.816186 -0.40748778 56 6
-3.6883609 6.7229981 1.7703648 90 14
-3.7355266 6.8117805 -0.1356052 87 7
-3.6624305 6.6812549 2.0415647 100 15
-2.3673024 4.3311434 -1.3225653 47 0
-3.7276993 6.8229046 0.13570991 80 8
-2.5891593 4.7409773 -1.2471286 62 1
-3.7226889 6.8193984 0.40717378 119 9
-2.9152172 5.3402333 -1.1826342 47 2
-3.7162464 6.8104143 0.67876893 71 10
-3.3513215 6.144208 -1.1084948 27 3
-3.7116663 6.8076792 0.95204335 104 11
-3.7009821 6.790894 -0.949606 99 4
-3.6958609 6.7843227 1.2236305 103 12
-3.7026761 6.7996573 -0.67737442 46 5
-3.6738811 6.746778 1.4932712 100 13
-3.7076747 6.8116603 -0.40644106 59 6
-3.6602159 6.7272725 1.7681153 88 14
-3.7079031 6.8177533 -0.13546558 84 7
-3.6335485 6.683816 2.0384588 100 15
-2.3504927 4.3380919 -1.3220477 46 0
-3.6981423 6.8253264 0.13550049 80 8
-2.5614588 4.729423 -1.2417299 62 1
-3.6884046 6.8130307 0.4060224 117 9
-2.9115105 5.3802347 -1.1891217 48 2
-3.6874664 6.8169804 0.67807168 77 10
-3.3626039 6.2190042 -1.119758 27 3
-3.6784403 6.8031306 0.949606 111 11
-3.6697025 6.7898021 -0.9476561 102 4
-3.6702802 6.7937055 1.2230048 103 12
-3.6751328 6.8055277 -0.67667717 47 5
-3.6416693 6.746377 1.4902184 100 13
-3.673198 6.8076277 -0.40539435 60 6
-3.6309104 6.7320657 1.7658658 94 14
-3.6802864 6.8236136 -0.13532595 82 7
-3.6083634 6.6930566 2.0374236 100 15
-2.3353345 4.346271 -1.3220477 43 0
-3.6712108 6.8353114 0.13543068 82 8
-2.5431862 4.7370615 -1.2412798 61 1
-3.6530185 6.8071461 0.40487102 121 9
-2.8899257 5.3851757 -1.1879768 45 2
-3.6579986 6.8192754 0.67702579 71 10
-3.3912835 6.3247118 -1.1366529 31 3
-3.6497283 6.8095698 0.94863105 104 11
-3.6372938 6.7892075 -0.94570619 102 4
-3.6378932 6.7931819 1.2205019 90 12
-3.6475906 6.8112903 -0.67597991 47 5
-3.6171696 6.7573175 1.4898368 100 13
-3.6475265 6.8168869 -0.40518501 61 6
-3.5945203 6.7206426 1.7595671 100 14
-3.6486504 6.8247132 -0.13508162 79 7
-3.580164 6.6994224 2.0353529 100 15
-2.3056147 4.3271165 -1.3137655 51 0
-3.6388664 6.832201 0.13511653 90 8
-2.5330446 4.7579517 -1.2444292 63 1
-3.6273594 6.816329 0.40466166 121 9
-2.8591216 5.3726997 -1.1830158 51 2
-3.6285567 6.8214493 0.67597991 73 10
-3.3756754 6.348721 -1.1388431 28 3
-3.6212792 6.8135028 0.94741231 107 11
-3.6079829 6.7913451 -0.94424373 99 4
-3.6048951 6.7883925 1.2173731 96 12
-3.6163182 6.8099036 -0.6745854 49 5
-3.5908 6.7646999 1.4886919 100 13
-3.6162212 6.8154621 -0.40434763 61 6
-3.5692141 6.7297044 1.7586673 96 14
-3.6163776 6.8215065 -0.13476749 87 7
-3.5495217 6.6982226 2.0312121 100 15
-2.2805698 4.3163486 -1.3080715 52 0
-3.6121953 6.8395557 0.13501182 84 8
-2.516422 4.7667642 -1.2444292 58 1
-3.6010075 6.8212543 0.40424296 110 9
-2.8485973 5.3982739 -1.1864504 47 2
-3.5935705 6.8129258 0.67388821 73 10
-3.3092732 6.2765913 -1.1238253 18 3
-3.5891457 6.8102961 0.94521874 97 11
-3.5805519 6.7968736 -0.94326878 107 4
-3.5749967 6.7863283 1.2148702 96 12
-3.5813839 6.801331 -0.6724937 48 5
-3.5589366 6.7615566 1.4852573 100 13
-3.5886872 6.8209748 -0.40392897 59 6
-3.5420711 6.7352247 1.7568678 97 14
-3.58815 6.8228431 -0.13455805 82 7
-3.5165048 6.689436 2.0250003 100 15
-2.2663846 4.325995 -1.3085891 51 0
-3.5755727 6.8249273 0.13448824 90 8
-2.4870389 4.7491884 -1.2376807 56 1
-3.5725417 6.8249359 0.4037196 109 9
-2.8233638 5.3960085 -1.1837791 48 2
-3.5660717 6.8183675 0.67319095 73 10
-3.1520312 6.0267177 -1.0772078 16 3
-3.5610223 6.8116069 0.94375628 97 11
-3.5515587 6.7963939 -0.94156259 105 4
-3.5476294 6.7917619 1.2136188 96 12
-3.555778 6.8102579 -0.67214507 48 5
-3.5274065 6.7559185 1.4814411 100 13
-3.5623531 6.8257542 -0.40351027 59 6
-3.5143101 6.7365661 1.7541683 100 14
-3.5643134 6.8353257 -0.13455805 84 7
-3.4842017 6.6845398 2.019824 100 15
-2.2573724 4.3437719 -1.311695 50 0
-3.5526507 6.8391409 0.13452315 93 8
-2.4686508 4.7543812 -1.2367809 60 1
-3.5413375 6.8231826 0.40288225 112 9
-2.7999887 5.3971181 -1.1818709 52 2
-3.5416045 6.8266191 0.67284232 75 10
-3.1455262 6.0657406 -1.0822138 19 3
-3.5253489 6.8010836 0.9405877 100 11
-3.5186794 6.7911253 -0.93912524 107 4
-3.516634 6.7900705 1.2111158 96 12
-3.5283217 6.8155503 -0.67144781 49 5
-3.4972057 6.7583413 1.4791514 100 13
-3.5244668 6.8139281 -0.40204483 59 6
-3.4827175 6.7332134 1.7501192 100 14
-3.5367596 6.8406191 -0.13441843 82 7
-3.4572976 6.6897974 2.0177534 100 15
-2.2432044 4.3554511 -1.3127302 49 0
-3.5193207 6.8361158 0.13420901 87 8
-2.4512095 4.7633967 -1.2367809 61 1
-3.5026002 6.8094759 0.40131214 104 9
-2.78019 5.4073434 -1.1818709 52 2
-3.5092735 6.8253779 0.67144781 73 10
-3.1720333 6.1721025 -1.0991087 19 3
-3.496768 6.8068972 0.93961275 100 11
-3.4856055 6.7880821 -0.93693155 94 4
-3.4890156 6.7976427 1.2101772 85 12
-3.5005877 6.8231196 -0.6709249 50 5
-3.4697254 6.765872 1.4780066 100 13
-3.4976449 6.8232465 -0.40183553 57 6
-3.4482355 6.7268581 1.7451702 100 14
-3.5025432 6.8357401 -0.13406938 87 7
-3.4327564 6.7024231 2.0177534 100 15
-2.2272267 4.3636432 -1.3127302 49 0
-3.4933343 6.8471866 0.13417409 96 8
-2.4284213 4.7619333 -1.2340814 61 1
-3.4769962 6.8181019 0.40110281 86 9
-2.7586241 5.411767 -1.1807261 51 2
-3.4788079 6.8275423 0.67040199 77 10
-3.1933169 6.2699394 -1.1144392 27 3
-3.4690957 6.8143597 0.93888152 104 11
-3.4582884 6.7931309 -0.93595666 97 4
-3.4563088 6.7921743 1.2070485 82 12
-3.4659114 6.8139863 -0.66883314 50 5
-3.443419 6.7726912 1.4768617 100 13
-3.4665685 6.8211689 -0.40099812 56 6
-3.4238522 6.7371159 1.7447205 100 14
-3.4677939 6.82653 -0.13365053 84 7
-3.4014661 6.698863 2.0130947 100 15
-2.2040198 4.3537688 -1.3075538 44 0
-3.4597759 6.8373213 0.13375525 78 8
-2.4152544 4.775178 -1.2354312 57 1
-3.4489567 6.818902 0.40047479 104 9
-2.7442045 5.4278941 -1.1822525 51 2
-3.4471629 6.8212581 0.66865885 73 10
-3.0825496 6.1024122 -1.0828395 19 3
-3.4428988 6.8187394 0.93790656 97 11
-3.4303725 6.7939305 -0.9344942 102 4
-3.4310942 6.7983088 1.2061099 90 12
-3.433423 6.8058753 -0.66691571 49 5
-3.4120998 6.7665443 1.4730455 100 13
-3.4421301 6.8290615 -0.40078878 57 6
-3.3962276 6.7379928 1.742021 100 14
-3.443336 6.8344216 -0.13358071 84 7
-3.3670697 6.6859498 2.0058477 105 15
-2.1965034 4.374866 -1.311695 43 0
-3.4245243 6.8237357 0.13326657 78 8
-2.3985331 4.7814183 -1.2349813 60 1
-3.4215539 6.8237576 0.40005609 102 9
-2.725311 5.4352093 -1.1818709 52 2
-3.423629 6.8308711 0.66848457 81 10
-3.0269058 6.0419555 -1.0703248 19 3
-3.4131587 6.815918 0.93595666 97 11
-3.4030836 6.7987623 -0.93351924 97 4
-3.4038084 6.8031764 1.2048583 90 12
-3.4042995 6.8071265 -0.66586983 49 5
-3.3773494 6.7532382 1.4677029 100 13
-3.4105358 6.8225722 -0.39974207 62 6
-3.3674619 6.739346 1.7393216 100 14
-3.4158859 6.8392429 -0.13344111 82 7
-3.3437123 6.6976619 2.0058477 105 15
-2.1787341 4.3794279 -1.3106596 45 0
-3.4015768 6.8374386 0.13330148 87 8
-2.3757532 4.7775483 -1.231832 58 1
-3.3932703 6.8267155 0.39953274 107 9
-2.700129 5.4346128 -1.1795813 52 2
-3.3932509 6.8326678 0.66743869 81 10
-2.9994719 6.0423918 -1.0684476 19 3
-3.3787553 6.8064528 0.93303174 104 11
-3.3705056 6.7928181 -0.93108183 95 4
-3.3756499 6.8061695 1.203294 87 12
-3.3769791 6.8118277 -0.66517264 49 5
-3.3508298 6.7620544 1.4669396 100 13
-3.3801863 6.8242893 -0.39911404 55 6
-3.3392813 6.744657 1.737522 100 14
-3.3902185 6.8475394 -0.13337129 103 7
-3.3177402 6.7040987 2.0042949 100 15
-2.1642869 4.3887396 -1.3111774 47 0
-3.3703027 6.8373051 0.13305715 82 8
-2.3616729 4.7932158 -1.2336316 58 1
-3.3611653 6.8247743 0.39869535 107 9
-2.6776738 5.4369597 -1.1780548 54 2
-3.3667412 6.8391075 0.66691571 77 10
-2.9783599 6.0528259 -1.0684476 19 3
-3.3520319 6.8152294 0.93254429 104 11
-3.3368297 6.7873116 -0.92864448 95 4
-3.3454556 6.807858 1.2014169 87 12
-3.3514216 6.8199983 -0.66482401 48 5
-3.3254759 6.7701845 1.4661764 100 13
-3.3475437 6.8181181 -0.39806733 55 6
-3.3036964 6.7317815 1.7312233 100 14
-3.3562899 6.8419671 -0.13302223 84 7
-3.2897458 6.7092752 2.0022242 100 15
-2.1515 4.4014735 -1.3127302 41 0
-3.3490505 6.8544173 0.13316187 87 8
-2.3457808 4.8031816 -1.2340814 56 1
-3.3320661 6.8256955 0.39806733 112 9
-2.648345 5.4251018 -1.1734754 59 2
-3.3349857 6.8347015 0.66534692 79 10
-3.0723829 6.2993217 -1.110059 32 3
-3.324744 6.8197508 0.93156934 104 11
-3.3096402 6.791779 -0.92766953 97 4
-3.3104243 6.7964082 1.1973495 96 12
-3.3206134 6.8173265 -0.6634295 46 5
-3.2983871 6.7746902 1.4646499 100 13
-3.3202291 6.8225775 -0.39764863 55 6
-3.2750616 6.7327585 1.728524 100 14
-3.3218949 6.8320599 -0.13260339 82 7
-3.2561707 6.6998682 1.9960126 100 15
-2.126014 4.3880954 -1.3065187 41 0
-3.313771 6.84267 0.1327081 82 8
-2.3290012 4.8113399 -1.2340814 56 1
-3.3076708 6.8331127 0.39785796 109 9
-2.6319554 5.4396152 -1.1746202 65 2
-3.3006964 6.8247786 0.66325516 81 10
-2.9317319 6.0645785 -1.0668832 17 3
-3.30178 6.8331032 0.93181306 114 11
-3.2841837 6.799716 -0.92718202 97 4
-3.2878697 6.8073478 1.1973495 96 12
-3.285537 6.8055501 -0.66116345 45 5
-3.2670379 6.7702494 1.4612154 100 13
-3.2946565 6.8305283 -0.3974393 56 6
-3.2506948 6.742393 1.728074 99 14
-3.2931397 6.83043 -0.13235906 77 7
-3.2263885 6.6949658 1.9913538 100 15
-2.1056674 4.3850403 -1.3034128 41 0
-3.2841384 6.8391995 0.13242885 75 8
-2.3071318 4.8067384 -1.2309321 58 1
-3.281208 6.8392138 0.39754397 104 9
-2.6087084 5.439918 -1.1727122 56 2
-3.2734101 6.829071 0.66255796 69 10
-2.8945293 6.0386405 -1.0606258 18 3
-3.2705266 6.8261113 0.92937571 107 11
-3.2616184 6.8105688 -0.92718202 99 4
-3.2606776 6.811656 1.1960981 93 12
-3.258323 6.8097882 -0.66046619 45 5
-3.2344017 6.7597938 1.456636 100 13
-3.2685421 6.8342085 -0.39702061 55 6
-3.2283194 6.7531352 1.728074 96 14
-3.267554 6.8382745 -0.13228925 71 7
-3.2004995 6.7009583 1.9898008 100 15
-2.094435 4.3989763 -1.3054833 41 0
-3.2550905 6.839787 0.13221943 75 8
-2.2869895 4.807724 -1.2291325 58 1
-3.2478788 6.8307858 0.39639258 107 9
-2.587281 5.4414473 -1.1711857 56 2
-3.2481785 6.8344913 0.66203499 77 10
-2.9488695 6.207509 -1.0884712 24 3
-3.2364593 6.8159685 0.92645079 107 11
-3.2293115 6.8039794 -0.92474467 102 4
-3.2368789 6.8229971 1.1960981 99 12
-3.2348669 6.8187561 -0.66029191 46 5
-3.2074196 6.763948 1.4551095 100 13
-3.2352543 6.8257246 -0.3958692 54 6
-3.1963818 6.7467527 1.723575 92 14
-3.2402391 6.8424106 -0.13214962 74 7
-3.1754379 6.7085967 1.9887657 100 15
-2.0848386 4.4184899 -1.3091067 36 0
-3.2337525 6.8565345 0.13232414 68 8
-2.2693634 4.8139148 -1.2286826 60 1
-3.2180574 6.8294339 0.39565986 102 9
-2.5640879 5.441565 -1.1692775 53 2
-3.2200587 6.8367748 0.66116345 69 10
-2.9482193 6.262445 -1.0962929 24 3
-3.2092681 6.8200393 0.9254759 100 11
-3.1987839 6.8008394 -0.92279476 102 4
-3.2029583 6.8128014 1.1923436 90 12
-3.2093515 6.8263998 -0.65994328 47 5
-3.179616 6.7662182 1.4532013 100 13
-3.2063153 6.826129 -0.3952412 53 6
-3.1645312 6.7402287 1.7190759 97 14
-3.2112358 6.8428187 -0.1319402 71 7
-3.1479006 6.7108941 1.9861774 100 15
-2.0522196 4.3889904 -1.2982364 39 0
-3.1996372 6.8460422 0.13190529 76 8
-2.2550213 4.8271036 -1.2300324 58 1
-3.1899717 6.8315773 0.39513651 107 9
-2.5450761 5.4504828 -1.1692775 59 2
-3.1919591 6.8389468 0.66029191 77 10
-2.9380345 6.2977595 -1.100673 32 3
-3.1854405 6.8312011 0.9254759 118 11
-3.173346 6.8083663 -0.92230725 107 4
-3.1716514 6.8078246 1.1895279 103 12
-3.1787734 6.823112 -0.65854877 48 5
-3.157634 6.7808361 1.4539646 100 13
-3.1816232 6.8354692 -0.39513651 59 6
-3.1344094 6.7370982 1.7154768 100 14
-3.1780565 6.8340402 -0.13155624 84 7
-3.1171255 6.7060757 1.9815186 100 15
-2.027952 4.3768463 -1.2925425 43 0
-3.1732008 6.8517251 0.13180058 78 8
-2.2365193 4.8314095 -1.2291325 58 1
-3.1644297 6.839045 0.39492717 109 9
-2.5219142 5.4504242 -1.1673695 60 2
-3.1580327 6.8283467 0.65820014 75 10
-2.9193473 6.3151498 -1.1019244 28 3
-3.1582468 6.8350701 0.92450094 107 11
-3.142904 6.8049841 -0.92035741 115 4
-3.140415 6.8027134 1.186712 90 12
-3.1482546 6.8196955 -0.65715432 49 5
-3.125721 6.7739897 1.4501485 100 13
-3.1527267 6.8356514 -0.39450848 60 6
-3.1125035 6.7515392 1.7163765 99 14
-3.1499987 6.8360105 -0.13138172 79 7
-3.0848093 6.6976137 1.9758247 100 15
